ply
format ascii 1.0
element vertex 880
property float x
property float y
property float z
property float nx
property float ny
property float nz
end_header
-144.1494 79.9200 -374.2240 -1.29754 -0.0895137 0.400708
-145.6494 86.9200 -374.3520 -1.5979 -0.125738 0.800585
-145.6440 87.4200 -374.2070 -0.891835 -1.23041 2.44526
-146.3823 92.2799 -376.4290 -4.45719 -0.347389 2.80573
-147.6494 97.4200 -374.3420 0.496016 -1.97388 -2.39271
-147.6494 97.2852 -374.2070 -0.911547 -2.43123 -1.86685
-146.5363 96.1259 -373.2410 -4.21132 -2.2708 -2.1383
-147.6494 99.4200 -374.3430 2.76057 2.27988 0.114367
-148.1494 99.7689 -374.2070 1.1717 2.85133 0.265538
-38.6494 149.9200 -374.2950 -0.689313 -3.21639 -3.25329
-37.0034 149.6507 -374.7260 -1.20093 -3.89386 -4.60105
-38.6494 149.8474 -374.2070 -0.905897 -2.03716 -2.104
-39.6494 150.4200 -374.5100 -0.508221 -1.31054 -1.86303
-39.1494 149.9200 -374.3330 -0.285641 -1.47181 -1.86166
-42.6494 152.4200 -374.3730 -0.850281 0.315565 1.69746
-42.1494 152.4200 -374.2850 -0.574487 -0.214477 3.07894
-41.7723 152.4200 -374.2070 -0.901439 0.347663 4.12842
-43.9310 155.0915 -375.9000 -2.0419 1.86833 3.69282
-44.1494 156.1372 -374.2070 -0.339343 -3.405 2.00299
-44.6494 156.2911 -374.2070 -0.38096 -1.23793 0.62452
-44.6494 157.7118 -374.2070 -0.763108 3.02716 -0.630563
-148.1494 71.6935 -373.7070 2.35052 -3.72033 -0.894495
-147.1494 73.9200 -373.8060 -1.24551 1.98483 1.94707
-147.1494 73.8421 -373.7070 -1.26757 2.27591 1.73226
-139.0673 76.1734 -377.4460 4.02505 -2.81072 -3.25203
-145.4349 75.8582 -373.3770 -5.72357 2.40018 0.777483
-144.6494 77.4725 -373.7070 -4.43869 2.30201 0.309217
-144.1494 78.8640 -373.7070 -2.80697 1.49555 0.944268
-144.1494 78.9200 -373.7910 -2.64056 1.57232 1.1477
-144.3758 78.4200 -373.7070 -4.31834 1.48885 1.06185
-144.4575 78.4200 -374.2070 -1.46557 0.372732 0.239383
-138.2768 82.9416 -372.9520 5.77562 1.10986 -1.96825
-145.6494 87.4200 -374.1670 -3.12779 -1.33799 -0.383263
-145.6494 87.3022 -373.7070 -3.34432 -1.31581 -0.0394321
-147.6494 97.2026 -373.7070 -1.60741 -2.0038 -0.789782
-146.7518 98.2769 -373.2210 0.563371 5.1756 2.86819
-148.6149 99.9200 -373.7070 0.621513 2.81372 -0.993476
-148.6494 99.9200 -373.7160 0.292351 2.93331 -1.10082
-148.6494 99.7554 -374.2070 0.230269 1.53795 -0.242341
-148.1494 99.7544 -373.7070 1.47402 2.94661 0.511603
-148.6494 99.9240 -373.7070 0.159695 1.39302 -0.601317
-38.1494 149.4200 -374.0210 -0.776145 -4.14847 -2.61899
-38.1494 149.2331 -373.7070 -0.796524 -2.3327 -1.85311
-38.6494 149.4200 -373.8660 -0.396255 -0.880342 -0.994947
-41.6494 151.9200 -373.8560 0.0290269 1.2807 2.00411
-41.1494 151.5978 -373.7070 0.890507 1.49032 3.66534
-40.9825 151.4200 -373.7070 1.2966 0.861116 2.69385
-40.6494 151.4200 -373.9120 -0.496475 -0.180795 2.43589
-40.4046 151.4200 -373.7070 -2.74298 -0.9186 2.85395
-40.8609 151.9909 -373.9130 -1.81907 0.529634 5.3717
-43.6494 156.4200 -373.8390 -2.29227 -2.41099 2.26856
-43.6494 156.6594 -373.7070 -2.10523 -1.1161 3.04674
-43.8263 157.9883 -373.4180 -4.18179 1.59999 1.61758
-44.6494 157.7870 -373.7070 0.298972 3.01017 -0.330316
-43.2882 158.5185 -373.6930 -2.00626 4.16244 -3.73707
-148.5863 71.4200 -373.7070 0.675619 -0.933748 -0.250386
-148.3334 71.4200 -373.2070 2.3772 -2.2973 -1.43597
-147.1494 73.4730 -373.2070 -1.45218 2.13893 0.45462
-144.4488 77.9200 -373.7070 -2.99792 0.834989 0.468086
-144.1494 78.6686 -373.2070 -2.70842 0.9674 0.643033
-143.9589 79.4200 -373.7070 -0.784897 -0.0555833 0.037822
-143.9702 79.9200 -373.2070 -2.33074 -0.165054 0.224912
-143.9348 79.4200 -373.2070 -3.12564 -0.221578 0.264669
-145.4918 86.9200 -373.2070 -2.16321 -1.01217 -0.222254
-138.0925 90.9200 -373.2070 3.6555 -0.103083 -1.38691
-138.0911 91.4200 -373.2070 2.82435 0.214748 -1.17373
-138.1494 91.7606 -373.2070 3.91704 0.990441 -1.3373
-138.3624 92.8526 -372.8220 5.67595 2.04331 -0.398672
-147.6494 96.9200 -373.4260 -1.13033 -2.06932 -2.07762
-147.6494 96.7009 -373.2070 -1.13105 -2.06777 -2.07488
-148.1494 98.9200 -373.4010 0.160846 1.69456 2.61154
-148.1494 98.6106 -373.2070 -1.46612 1.45562 2.01963
-148.1494 99.4200 -373.6380 -0.217806 0.824003 2.98581
-33.5149 146.6744 -373.0590 0.72418 -1.51962 -5.57834
-37.6494 148.9200 -373.5830 -1.03536 -3.86193 -3.05626
-37.6494 148.6452 -373.2070 -0.444884 -2.5246 -1.82312
-38.1494 148.9200 -373.3510 -0.368552 -0.898149 -0.784562
-40.1494 150.9200 -373.4790 -1.48302 -0.186732 1.58232
-39.7863 150.9200 -373.2070 -2.70136 -1.10923 3.06159
-41.1494 151.4200 -373.6230 0.571646 0.536571 1.13109
-44.6494 156.8261 -373.7070 -0.233643 -0.786965 0.778367
-44.6494 156.9200 -373.6120 -0.0974849 -1.64338 2.58901
-44.1494 156.9200 -373.4620 0.0685803 -0.33847 3.55447
-44.6494 157.3240 -373.2070 2.16008 -1.58869 1.60712
-40.8706 157.1912 -375.2360 1.26277 3.47646 -4.69258
-44.3940 157.6569 -373.2210 4.35902 -0.629566 2.30248
-44.6494 157.9200 -373.5730 2.70992 1.13023 -1.1221
-44.6494 158.2840 -373.2070 2.59565 1.17387 -1.34923
-148.1494 71.0910 -372.7070 2.45497 -1.58022 -2.16047
-136.7530 72.9218 -372.5210 3.83283 -1.5479 -4.53156
-147.1494 73.5153 -372.7070 -1.84426 2.61209 -0.0454651
-144.6134 76.9200 -372.7070 -4.44849 2.36314 0.912628
-144.4091 77.6438 -373.0410 -5.74824 2.13608 1.00347
-144.1494 78.2796 -372.7070 -3.65659 1.20873 0.543033
-144.1494 78.4200 -372.8280 -2.70768 0.739177 0.606149
-143.9097 79.9200 -372.7070 -3.12426 -0.221945 -0.0415899
-143.8742 79.4200 -372.7070 -4.42064 0.273206 -0.684787
-145.5530 86.9200 -372.7070 -2.82468 -1.34225 -0.329991
-145.9436 88.0587 -373.9950 -6.05079 -1.52816 0.275095
-138.0122 90.4200 -372.7070 3.53512 -0.526577 -1.44043
-138.1494 91.9200 -372.8260 2.03752 0.467189 -0.405276
-138.1494 92.4200 -372.7550 2.178 0.671398 -2.59215
-138.1494 92.4707 -372.7070 3.4665 2.00141 0.224977
-147.6494 96.4200 -372.9290 -1.09569 -1.79432 -2.21571
-147.6494 96.0796 -372.7070 -1.03679 -1.91807 -2.32871
-148.1494 98.4200 -372.9200 0.650087 2.45849 1.7516
-148.1494 98.2064 -372.7070 -0.580713 3.05659 3.30867
-37.6494 148.4200 -372.8780 -0.638793 -2.62545 -1.64343
-37.6494 148.3345 -372.7070 -1.17927 -2.93956 -0.569694
-39.2663 151.3180 -372.6040 -4.65609 -1.61831 3.7511
-39.6494 150.4200 -373.0850 -1.62223 -0.44306 2.12037
-39.1494 149.9200 -372.9130 -1.2759 -0.524922 1.89487
-38.8582 149.9200 -372.7070 -3.28203 -1.08903 1.77808
-44.6494 157.4200 -373.1150 2.29074 -1.78019 1.53701
-44.6494 157.6926 -372.7070 2.14332 -2.11865 1.16766
-44.1653 158.4028 -372.2450 0.604992 -4.28779 1.3741
-44.6494 158.4200 -373.0740 3.40619 -0.767973 -1.78609
-44.1494 158.9200 -373.1020 2.74069 -2.20813 -1.98567
-44.6494 158.4667 -373.2070 1.22518 -1.25046 -0.431934
-44.1812 158.9200 -373.2070 1.21146 -1.25109 -0.364381
-43.6470 159.2537 -372.8020 -1.67148 2.23578 -5.07259
-44.1494 159.4200 -372.7500 0.486233 2.13743 -2.14163
-44.1494 159.4539 -372.7070 -0.52189 2.25594 -2.04414
-148.1494 70.4200 -372.2130 2.15193 -1.40879 -1.7527
-148.1494 70.4136 -372.2070 1.93411 -1.56813 -1.53384
-147.7113 70.4493 -371.6910 4.29419 -2.39087 0.00516197
-148.1494 70.9200 -372.5960 2.09635 -1.33171 -1.83829
-147.1494 73.5064 -372.2070 -1.45349 2.81727 0.421085
-144.6494 76.8514 -372.2070 -2.56911 2.14681 -0.0977164
-144.4424 77.4200 -372.2070 -3.88474 0.674831 0.0121198
-144.1494 78.2715 -372.2070 -4.37674 1.64755 -0.356069
-143.9898 78.9200 -372.7070 -1.55032 0.0909093 -0.367473
-144.0164 78.9200 -372.2070 -4.50424 -0.155506 -0.753999
-143.9837 79.9200 -372.2070 -3.77538 0.0919504 -0.953675
-143.9147 81.4200 -372.7070 -0.740259 -0.0717657 -0.173267
-144.0802 81.9200 -372.2070 -3.72062 -0.440811 -1.12939
-144.0317 81.4200 -372.2070 -4.54494 -0.41284 -1.22321
-144.1494 82.9200 -372.4640 -1.04232 -0.180128 -0.39227
-144.2408 82.9200 -372.2070 -4.20943 -0.855767 -1.64548
-144.1470 82.4200 -372.2070 -3.17954 -0.778204 -1.53786
-145.6105 86.9200 -372.2070 -4.56296 -1.09482 -0.634839
-137.9316 89.4133 -372.1340 5.3938 -1.2429 -2.48456
-137.6494 90.0239 -372.2070 2.22908 -1.2332 -2.21137
-137.6494 90.4200 -372.3730 1.18897 -0.539189 -1.28989
-138.1494 92.4200 -372.6430 2.36796 1.62096 1.09353
-138.1494 92.1393 -372.2070 2.55324 1.37419 0.638474
-139.2406 95.8971 -373.3300 4.72956 2.71646 -0.275357
-147.6494 95.9200 -372.5540 -0.858598 -2.23971 -2.06338
-147.6494 95.6200 -372.2070 -0.230264 -2.62643 -1.70516
-148.6494 97.9200 -372.5800 -0.458888 2.05523 2.27595
-148.6494 97.5810 -372.2070 -0.414232 2.51384 1.72821
-147.5734 97.7142 -372.1430 0.819622 4.55197 4.02316
-142.8252 98.9682 -372.5200 1.10754 4.50829 1.6913
-148.6494 98.0899 -372.7070 -0.2422 1.03934 1.39154
-34.9149 141.2207 -371.3540 -3.2361 -1.54321 -4.52553
-37.4412 147.9200 -372.2070 0.491112 0.270732 -0.975256
-37.6494 148.2978 -372.2070 0.24726 0.136305 -0.491012
-37.6494 147.9200 -372.3120 0.633079 0.348993 -1.25718
-37.6494 148.4200 -372.3540 -1.34942 -2.68609 1.20137
-37.6494 148.5082 -372.2070 -1.42595 -2.39455 0.612652
-38.6494 149.4200 -372.5120 -1.37996 -0.373186 1.54264
-38.2415 149.4200 -372.2070 -2.72962 -0.52085 2.23491
-42.7265 156.2361 -372.8670 -3.25768 -3.27028 3.79734
-34.0254 154.6435 -373.1700 3.50458 2.64846 -3.94208
-39.6458 159.3412 -372.9130 1.83366 4.51426 -3.00548
-44.6494 157.9200 -372.2340 1.89247 -1.87063 1.19592
-44.6494 157.9455 -372.2070 1.93607 -1.91061 1.69034
-44.4634 158.9200 -372.2070 -1.72335 -0.207796 2.06388
-44.6494 158.8152 -372.2070 0.27088 1.85204 2.32061
-44.6494 158.9200 -372.3830 -0.409675 0.727039 0.434176
-44.1494 159.6012 -372.2070 -1.62231 2.20133 -1.04417
-148.1494 70.0904 -371.7070 1.77949 -2.1344 -0.857443
-147.1494 73.4275 -371.7070 -1.20601 2.87526 0.481287
-136.5095 76.8206 -372.4240 5.52841 0.891101 -2.6456
-144.6494 76.8906 -371.7070 -4.01409 2.19675 -0.52118
-144.4565 77.4200 -371.7070 -4.49001 1.1311 -0.510604
-144.1084 78.4200 -372.2070 -3.0085 0.639033 -0.545608
-144.1348 80.4200 -371.7070 -3.83482 -0.148371 -0.915392
-144.1344 80.9200 -371.7070 -4.54548 -0.241343 -1.21274
-143.9979 80.9200 -372.2070 -1.49508 -0.101096 -0.407967
-144.3602 80.4457 -370.7680 -5.72043 -0.295401 -2.30425
-144.3948 83.4200 -372.2070 -1.51123 -0.465744 -0.533896
-144.5715 83.4200 -371.7070 -4.46885 -1.03424 -1.76045
-144.6494 83.9200 -371.8470 -3.34972 -0.976795 -1.13944
-144.6494 84.2772 -372.2070 -2.09347 -0.684125 -0.67646
-144.6962 84.4200 -372.2070 -2.82528 -0.991167 -0.896324
-144.8899 84.9200 -372.2070 -2.81353 -1.0939 -0.867343
-145.8057 85.0900 -369.4510 -5.9023 -1.20493 -1.67153
-145.0852 85.4200 -372.2070 -2.82242 -1.08247 -0.867409
-145.1494 85.5906 -372.2070 -2.84617 -1.03047 -0.864813
-145.2644 85.9200 -372.2070 -2.86156 -0.981075 -0.857384
-145.4335 86.4200 -372.2070 -2.84901 -0.991368 -0.863109
-138.3217 87.5601 -373.4700 5.50041 -0.328562 -2.68577
-137.8901 87.5388 -371.4060 5.89074 -0.530887 -1.72379
-137.6494 89.3729 -371.7070 2.22506 -1.22783 -1.58917
-137.6494 89.4200 -371.7550 2.32627 -1.52476 -1.70474
-137.6494 89.9200 -372.1030 2.36432 -1.23508 -1.36983
-138.1494 91.9422 -371.7070 2.97041 1.45338 0.924603
-147.6494 95.4200 -371.9350 0.988697 -2.39598 -1.86025
-147.6494 95.1756 -371.7070 2.4165 -2.07771 -2.4596
-148.6494 97.4200 -371.8910 -0.411453 2.75592 1.45793
-148.6494 97.3204 -371.7070 -0.0613659 2.38327 2.00158
-36.2327 146.1832 -371.7810 -3.92659 -1.95477 -3.90839
-36.8669 147.9748 -372.4710 -3.30951 -4.28232 -2.58686
-37.6494 148.5462 -371.7070 0.505366 -1.84509 1.89874
-38.1494 149.0527 -371.7070 -2.16324 1.84738 1.89893
-32.2424 151.3143 -373.0520 4.12738 0.753595 -3.73441
-41.2392 154.1737 -373.9930 -3.56839 -1.66509 4.15474
-44.6494 158.3314 -371.7070 1.99016 -1.70922 1.56517
-44.6494 158.5401 -371.7070 1.96287 1.43857 1.40016
-44.1494 158.6165 -371.7070 -1.94671 -2.4558 1.59919
-44.4351 158.9200 -371.7070 -1.28521 -0.94357 0.262853
-43.6494 158.7283 -371.7070 -0.611518 1.10244 2.21525
-44.1494 159.9200 -371.7630 -1.6001 1.74271 -1.74688
-44.1494 159.9964 -371.7070 -0.764112 2.73675 -0.990729
-42.7984 160.4908 -372.4310 -0.674226 4.26056 -2.08462
-42.0348 160.5759 -371.1210 -0.800417 5.56062 -1.13952
-148.1494 69.9710 -371.2070 1.07447 -0.958125 -0.285818
-147.0058 72.1558 -372.1870 1.80383 -4.45191 -2.37445
-145.5754 71.1514 -370.5320 -0.731928 -5.1552 -2.94655
-147.1494 73.4200 -371.6690 -1.37328 2.8092 0.658715
-147.1494 73.2616 -371.2070 -1.56603 2.58076 0.915422
-144.6277 76.9200 -371.7070 -1.96801 1.29406 -1.7629
-144.3982 77.8409 -371.2880 -5.91665 1.18548 -1.37656
-95.3837 77.2102 -370.8240 1.28532 -1.54604 -5.47308
-137.6861 85.9200 -371.2070 4.31521 -0.485482 -1.48944
-137.7536 86.4200 -371.2070 3.85658 0.435401 -0.711102
-137.6494 87.9039 -371.2070 3.5892 -1.7243 -1.65721
-137.6494 87.9200 -371.2200 3.57961 -1.32066 -2.41932
-137.6389 87.9200 -371.2070 0.835789 -0.542867 -0.695054
-137.6494 88.4200 -371.3450 2.90375 -0.329325 -1.45291
-137.6494 88.9200 -371.3980 2.42619 -0.268412 -1.11009
-137.6494 91.4200 -371.6590 0.658662 1.14692 1.61098
-137.6494 91.0801 -371.2070 -1.74382 1.85039 1.50787
-138.1494 91.9200 -371.6830 3.20152 1.55894 2.17181
-139.2644 93.7082 -370.9010 4.84999 2.10901 3.06832
-148.1494 94.4200 -371.3760 1.61443 -2.11209 -1.79149
-148.1494 94.2511 -371.2070 1.3409 -2.07549 -1.16883
-146.9744 94.6848 -370.6300 -1.79901 -3.04508 -2.03569
-148.1494 94.6700 -371.7070 0.963969 -1.32949 -1.03271
-147.8148 94.9200 -371.7070 1.90829 -1.91917 -1.90686
-148.6494 96.9200 -371.3210 0.553583 1.79894 2.46139
-148.6494 96.7493 -371.2070 1.04205 1.34054 2.58026
-36.7196 146.4200 -371.2070 -2.68366 -0.792031 -1.9509
-36.6607 146.9200 -371.2070 -2.44228 -1.53984 -0.0216933
-37.1494 147.4200 -371.3560 -2.55932 -1.7149 -1.65772
-37.1494 147.3470 -371.2070 -1.15097 -1.31726 -0.646073
-37.1494 147.9200 -371.5860 -3.05176 -2.02999 -1.38778
-37.6494 148.4200 -371.4630 -0.521103 1.84737 -1.22024
-37.6494 148.5343 -371.2070 -1.23888 2.61268 -1.39337
-37.6494 148.9200 -371.4790 -0.737766 -4.09441 1.96394
-38.1494 148.9200 -371.6030 -1.28585 0.355389 1.25906
-37.1601 149.1242 -370.6500 -4.91962 -0.236312 2.99272
-44.6494 158.4200 -371.6190 1.43884 -0.0579135 1.11386
-43.1494 158.7601 -371.2070 -2.23342 -2.41041 1.37381
-44.1494 160.2320 -371.2070 1.11184 2.07564 -0.185765
-147.6494 70.4200 -371.1660 2.73064 -3.01508 -2.64713
-147.6494 70.2496 -370.7070 1.52528 -2.51335 -1.45312
-147.1494 73.0750 -370.7070 -1.56083 2.29326 1.78555
-99.6602 80.8134 -371.4450 -0.608014 0.556642 -5.80724
-137.6494 85.9200 -370.9980 4.03377 0.173783 -0.567223
-137.6494 86.3128 -370.7070 3.49 0.181322 -0.558777
-137.7177 86.9200 -370.7070 4.8309 -0.344462 -1.97282
-146.1947 90.4708 -372.0890 -6.08383 -0.537522 -0.915752
-137.6494 87.6499 -370.7070 2.5718 -0.861898 -0.749493
-137.6494 90.9200 -371.0890 -0.038153 1.88378 2.51353
-137.6494 90.4656 -370.7070 -0.420882 1.96099 2.40125
-148.1494 94.1700 -370.7070 0.955698 -1.73492 -2.95598
-148.6494 96.4200 -371.0500 -0.794701 2.14141 1.96546
-148.6494 96.0627 -370.7070 -2.2439 1.42396 1.43019
-31.6416 139.8497 -371.6690 1.26711 -1.05434 -5.51933
-36.3720 143.4866 -370.4410 -5.31261 -1.05312 -0.789419
-36.6494 144.4200 -370.8410 -0.946258 -1.27353 -2.80874
-36.6494 144.1451 -370.7070 -2.38776 -1.53979 -1.1209
-36.6494 144.9200 -370.8650 -2.95573 -0.028203 -1.38304
-36.6494 145.4200 -370.8210 -3.0404 0.160841 -1.19162
-36.6494 145.9133 -370.7070 -0.551482 1.50515 0.719557
-36.6494 145.9229 -370.7070 0.281034 -1.73577 0.43578
-37.6494 148.6116 -370.7070 -2.05525 1.74632 1.9235
-42.5532 158.2351 -371.1590 -3.21505 -3.54797 3.93807
-43.1494 158.8025 -370.7070 -1.00186 -2.46865 1.77739
-44.1494 159.4200 -370.9770 -0.589534 0.0262092 1.21242
-44.1494 159.9200 -370.7850 -0.450416 0.76667 2.52578
-43.8932 159.4200 -370.7070 -2.09618 1.45246 1.8899
-147.6494 69.9200 -370.3720 1.57297 -1.71085 -2.26124
-147.6494 69.6497 -370.2070 1.52156 -1.66601 -0.939556
-134.3280 74.0912 -370.3430 4.08158 1.22128 -4.3517
-147.1494 72.4200 -370.5540 -1.53451 0.706226 2.03519
-147.1494 72.0405 -370.2070 -1.2677 2.1062 1.59379
-146.0390 73.6972 -370.5360 -4.80028 3.17272 1.91187
-147.1494 72.9200 -370.5840 -1.55385 1.26587 2.65351
-87.2216 86.1706 -371.1310 -0.230853 -0.0828518 -5.99657
-93.3623 82.8903 -370.8220 0.450145 0.278769 -6.07514
-83.2735 83.3758 -370.2960 0.519647 -0.886715 -6.15825
-137.4840 84.7911 -370.1680 6.12191 0.613531 -0.788956
-137.6494 86.4200 -370.6820 2.89019 -0.023318 -1.86868
-137.6494 86.9200 -370.5750 4.01281 0.275149 -2.42517
-137.2605 86.9200 -370.2070 2.4761 0.309505 -0.284702
-137.6494 87.4200 -370.4930 2.1653 -0.126081 -0.587891
-146.8295 89.7320 -370.8120 -5.2431 -0.788184 -2.02589
-80.4808 88.8763 -369.9910 0.827247 1.12801 -6.04232
-137.6494 88.9200 -370.4140 1.86985 0.894429 1.81716
-137.6494 88.6371 -370.2070 2.28502 1.32946 1.45274
-137.6494 89.4200 -370.4790 1.64963 0.281022 2.62578
-137.6494 89.9200 -370.5180 1.50303 0.649652 2.78567
-137.6494 90.4200 -370.6750 0.213251 1.66448 2.64592
-91.6867 89.2113 -370.0640 -1.48028 2.17905 -5.28685
-148.3994 93.9200 -370.7070 0.599252 -1.06426 -0.514653
-148.2028 93.9200 -370.2070 1.57363 -3.01056 -0.874627
-148.6494 95.9200 -370.5180 -1.69027 2.17304 1.70063
-148.1449 95.0608 -368.9180 0.2857 5.85202 1.85862
-148.6494 95.5747 -370.2070 -2.92107 2.12025 1.98858
-36.6494 144.4200 -370.6160 -2.75962 -0.373807 1.92846
-36.6494 144.9200 -370.6160 -2.63704 0.0810567 1.81397
-36.6494 145.4200 -370.6530 -2.57639 0.185196 1.83977
-36.0321 144.5733 -369.7030 -5.68851 0.168878 2.47316
-36.6494 146.4200 -370.5950 -1.89455 -0.815141 1.90856
-36.2586 146.4200 -370.2070 -3.7622 -1.8784 1.46982
-36.6494 146.9198 -370.2070 -1.80001 -1.40765 0.571262
-36.9408 147.4200 -370.2070 -2.50821 -2.28931 2.29912
-37.1494 147.4200 -370.3400 -0.581027 -0.639546 0.915607
-37.1494 147.6096 -370.2070 -1.96279 -1.51638 2.05893
-37.6494 148.9200 -370.3850 -0.011978 -0.00721008 -0.116424
-37.6601 148.9093 -370.1860 -0.714235 -0.64637 0.969409
-37.6494 148.4200 -370.6600 -0.957508 0.646884 1.3243
-37.1991 148.4200 -370.2070 1.73206 1.12676 1.94613
-37.5829 148.9200 -370.2070 1.01713 -0.177745 0.369932
-37.6494 148.9628 -370.2070 -0.66059 1.89718 0.767047
-30.9517 152.0668 -369.3750 5.80134 1.04092 -1.81751
-43.1494 158.9200 -370.5900 0.513383 -1.74837 3.28311
-43.6494 159.4200 -370.4090 -1.39263 0.669781 2.78491
-43.5074 159.9357 -370.6760 -2.1743 4.30826 3.1894
-40.6449 162.2513 -369.5770 0.122478 3.89781 -1.57048
-141.3546 68.1172 -369.8030 -1.90886 -4.95674 -2.76276
-134.8157 68.1325 -369.9960 1.392 -2.49242 -5.29877
-147.6494 69.5782 -369.7070 3.00777 -3.48947 -0.321646
-147.1494 71.9200 -369.9540 -1.27644 2.54348 1.43456
-147.1494 71.7622 -369.7070 -1.35907 2.46001 1.13398
-92.1324 75.5785 -368.4390 2.95097 -3.16525 -4.15411
-80.4526 82.2945 -370.0040 0.396048 -1.06751 -6.09921
-95.7645 87.9917 -369.0140 -1.59197 2.97221 -5.17359
-137.6494 86.9200 -369.8150 3.48252 1.83172 2.42469
-137.6494 87.4200 -369.9060 0.831745 0.510827 2.95765
-146.6905 87.9200 -369.7070 -2.9658 -1.47179 -1.87563
-137.6494 87.9200 -369.9490 -0.0777445 0.266012 3.12955
-138.2716 89.5972 -370.1070 3.98163 1.87326 4.35792
-146.7710 88.4200 -369.7070 -3.8628 -0.465139 -0.347721
-137.6494 88.4200 -369.9880 0.506705 0.574166 3.01297
-148.1494 93.7696 -369.7070 0.469371 -2.90294 -1.20778
-148.8204 95.4200 -370.2070 -1.7011 2.25567 1.52007
-149.1494 95.2051 -370.2070 -0.384246 1.46854 0.463807
-149.1494 95.2338 -369.7070 0.471827 3.03753 0.0655585
-140.7650 96.5283 -370.2910 2.98133 2.95451 3.13884
-33.3613 134.6693 -370.1650 -1.31835 -1.87891 -5.16612
-36.1494 146.2677 -369.7070 -4.48832 -0.308786 0.741008
-36.6494 146.9200 -370.1870 -3.94512 -2.08137 0.86117
-36.6361 146.9200 -369.7070 -3.04442 0.288478 1.45844
-37.1494 147.9200 -370.0590 -1.72083 0.496725 2.86588
-36.2516 147.3902 -369.3640 -5.19944 -0.597533 3.34892
-38.8726 156.5956 -369.1040 -4.52271 -2.1785 3.5797
-147.8516 69.4200 -369.7070 2.00163 -2.3966 -0.351807
-148.1494 69.0464 -369.2070 2.7388 -3.42628 -0.844242
-148.1494 69.2020 -369.7070 1.00129 -1.36722 -0.425337
-147.1494 71.5780 -369.2070 -1.80938 2.26579 0.269252
-146.3566 72.2950 -369.9130 -3.89087 2.68613 1.93503
-100.9715 74.5588 -370.3570 0.0376856 -2.04811 -5.68073
-106.2978 81.3884 -368.6340 -2.54018 2.51412 -5.01048
-75.5561 82.9496 -369.8230 0.474352 -0.574076 -6.14126
-146.4754 86.9200 -369.2070 -4.07808 -1.38152 -1.93017
-146.2480 86.9769 -369.5780 -5.25395 -1.78027 -2.80905
-146.6606 87.4200 -369.2070 -3.44596 -1.16778 -1.06388
-146.6494 87.3670 -369.2070 -3.66112 -0.875866 -1.82427
-146.8049 88.9200 -369.2070 -2.35289 -0.141097 -0.0352179
-146.8375 89.4200 -369.2070 -3.13573 -0.176685 -0.0500052
-146.8600 89.9200 -369.2070 -3.92044 -0.0209566 0.0329891
-148.1494 93.7054 -369.2070 -0.46406 -3.09791 -0.319949
-149.1494 95.1250 -369.2070 0.0168858 3.07846 0.625069
-27.6667 133.5826 -368.3240 3.74116 -0.61569 -4.14623
-36.1494 146.4200 -369.6340 -3.58991 -0.406602 0.215178
-30.5534 145.5904 -371.3860 4.38468 0.521461 -3.80973
-42.5309 160.1176 -370.1620 -3.70362 1.21263 2.7946
-41.7703 160.7970 -368.6280 -1.79063 -3.65453 3.86525
-136.0151 65.8814 -368.4760 -0.527435 -4.50332 -3.80771
-148.1494 68.9200 -368.8500 2.77495 -3.503 -0.105676
-148.6494 68.8007 -368.7070 1.04684 -1.67092 -0.0125057
-148.6021 68.9200 -369.2070 0.181455 -0.650007 -0.230165
-147.1494 71.5682 -368.7070 -2.63621 3.49824 1.2224
-105.6394 73.8909 -369.5760 -0.634077 -1.87952 -5.74606
-145.1591 75.9586 -370.2690 -5.82964 1.9763 -0.773726
-109.7779 78.5579 -368.7070 -2.13407 1.77185 -5.14916
-86.6558 79.5522 -369.5140 -0.492562 -2.36721 -5.64265
-104.0810 76.1964 -370.4800 -1.24718 -0.727212 -5.82197
-134.1996 78.7859 -365.7890 4.2233 4.07548 -1.79535
-79.1097 78.1589 -368.4230 0.404405 -1.68522 -5.99424
-68.2718 84.4720 -368.9380 1.14223 0.556 -6.01364
-101.8037 82.6389 -370.3110 -1.96833 2.17964 -5.3404
-99.3716 88.2751 -367.5750 -2.30061 4.09813 -3.80132
-146.5692 86.9200 -368.7070 -2.85601 -1.10197 -0.220438
-75.2497 88.7251 -369.3500 0.96922 1.58373 -5.88802
-146.6494 87.4200 -368.9350 -0.192142 -0.0407508 0.00793238
-146.7910 90.4200 -368.7070 -3.9044 0.0221874 0.285796
-141.1567 90.8397 -367.2320 5.03934 2.37673 1.06141
-85.9513 91.4716 -370.1870 -0.241703 2.5774 -5.22581
-148.1494 93.6700 -368.7070 -0.324578 -2.3427 0.0749091
-149.1494 95.0340 -368.7070 -0.00321267 2.3326 0.280901
-35.2647 132.7856 -367.8080 -4.56157 -1.69039 -3.32349
-30.9934 152.9200 -368.7070 3.88136 0.419582 -0.293636
-32.0895 155.6252 -369.0570 4.90511 2.99743 -1.62812
-31.0336 153.4200 -368.7070 3.41249 1.24212 -1.34539
-42.7464 160.9200 -368.7070 -2.21181 0.647617 -1.35483
-42.6494 160.6570 -368.7070 -1.42983 -3.57124 1.03311
-42.6494 161.3826 -368.7070 -1.7584 1.92898 -2.08174
-147.7752 69.3432 -368.0090 3.23417 -5.23659 -0.788163
-148.6494 68.6210 -368.2070 1.80536 -2.11359 -0.260827
-146.6387 70.5289 -370.1300 2.91386 -4.88709 -2.47444
-125.8184 66.8620 -368.2890 0.258246 -1.24716 -5.84478
-147.2975 71.4200 -368.7070 -1.87457 2.36806 1.01302
-147.6494 71.1700 -368.7070 -0.711078 1.39265 0.224417
-147.6494 71.1700 -368.2070 -0.907484 2.20376 0.207289
-146.2316 71.6704 -367.3200 -4.58278 2.30306 0.237666
-109.1323 72.6431 -368.6880 -0.889999 -1.57213 -5.79478
-72.2462 75.8555 -368.2300 -0.160866 -1.90019 -5.89297
-69.3539 78.4527 -368.6560 0.0429987 -0.492005 -6.18976
-89.0952 81.3953 -370.2580 0.326482 -1.69515 -5.88039
-65.4139 82.9194 -368.3180 1.4287 0.272854 -6.06243
-146.5748 86.9200 -368.2070 -2.17737 -0.838039 -0.113285
-137.8522 85.8628 -368.6410 5.66433 1.90731 1.67498
-146.7907 93.4743 -368.9410 -4.005 -3.00817 -0.549736
-146.7920 90.4200 -368.2070 -3.14041 0.01492 0.056654
-147.6494 93.7049 -368.2070 -0.613301 -3.82687 0.445464
-148.6494 95.0248 -368.2070 0.0749799 3.13303 0.21186
-31.3350 128.0235 -367.9580 -0.786274 -2.30506 -4.98694
-30.4852 150.9200 -368.2070 3.6091 0.2762 -1.01614
-30.6494 151.3889 -368.2070 4.49802 1.89899 -0.0178436
-30.7669 151.9200 -368.2070 3.85013 0.246636 -0.578179
-30.8463 152.4200 -368.2070 2.31798 0.365652 -0.319895
-31.1494 153.7466 -368.2070 3.6034 1.85746 0.26442
-31.9346 155.4200 -368.2070 3.56785 1.47999 -0.243964
-32.1494 155.8030 -368.2070 4.03349 2.69419 -0.0153218
-34.9711 158.0096 -370.0880 3.47237 4.24501 -2.89119
-42.6494 160.7850 -368.2070 0.268679 -1.59061 0.51602
-42.6592 161.4200 -368.2070 -0.921247 2.23863 0.249363
-42.0187 161.7114 -368.4570 -1.69314 3.86253 2.3936
-130.6643 65.8212 -367.8500 0.179753 -3.1615 -5.16962
-120.5071 68.1745 -367.9620 1.01425 0.041315 -5.86533
-148.6494 68.6846 -367.7070 1.96315 -2.56026 0.0995787
-147.1494 71.1700 -367.7070 -2.0224 2.59511 1.44027
-130.1696 73.6661 -367.2400 2.3711 3.33006 -4.63386
-146.1877 82.0437 -367.8950 -5.88786 -0.243436 -1.60294
-146.4340 86.4200 -367.7070 -3.72978 -1.13558 -0.20979
-146.7755 90.4200 -367.7070 -3.14082 0.0106043 0.0648667
-147.6494 93.7288 -367.7070 -0.489213 -3.10376 0.168952
-80.2892 93.7629 -368.0810 0.857402 3.82289 -4.48381
-84.3951 94.9388 -367.2950 -0.157712 4.80714 -3.50087
-146.2637 95.1317 -369.9710 -0.154076 4.79884 2.68113
-148.1494 94.9494 -367.7070 1.83156 3.46018 0.228559
-35.9897 140.2165 -368.5690 -5.93663 -0.417675 -0.465155
-30.4799 150.4200 -367.7070 3.71384 0.951545 1.07223
-30.6494 151.2848 -367.7070 3.29397 0.941129 1.64744
-30.6833 151.4200 -367.7070 4.26429 0.861329 1.34196
-31.1494 153.5349 -367.7070 3.72611 1.87579 1.31834
-31.7592 154.9200 -367.7070 4.36545 1.80613 0.735727
-32.1494 155.6998 -367.7070 2.69355 1.82269 0.664174
-35.5370 160.5328 -366.9240 3.09323 3.70729 0.0664538
-42.1494 160.9200 -368.1780 1.79121 -1.4476 2.67748
-42.6494 161.4200 -368.1970 -0.264361 2.07708 1.68375
-39.7912 161.8912 -367.4720 -0.322669 4.79323 1.10507
-120.7037 64.2408 -367.0080 1.27057 -2.90062 -4.90421
-148.6494 68.6721 -367.2070 1.69526 -2.71271 -0.422256
-113.1347 70.9936 -367.7570 -0.536009 -1.40813 -5.84243
-147.1494 71.1700 -367.2070 -1.10295 2.0925 0.308104
-129.9744 70.0275 -368.5960 1.50353 0.377922 -5.95458
-146.2818 75.2634 -366.8080 -6.08336 0.722737 -1.25913
-80.3370 73.7241 -367.8480 0.0285048 -1.8871 -5.80074
-114.1497 76.1319 -367.3680 -1.98938 1.57738 -5.53483
-75.9258 74.7548 -367.2830 0.180926 -1.86881 -5.89217
-65.9241 75.4938 -368.0180 0.716037 -1.3732 -5.93014
-146.3783 86.4200 -367.2070 -3.11148 -0.193808 0.372646
-146.7689 90.4200 -367.2070 -3.10738 0.0689792 0.32939
-147.6494 93.7702 -367.2070 -0.668437 -3.06713 0.32042
-148.1494 94.9867 -367.2070 2.51109 2.32281 -0.819118
-30.6494 150.4200 -367.2760 3.95712 1.28017 2.85433
-30.6494 150.9200 -367.5040 2.15398 1.11259 2.08104
-31.6021 150.0017 -366.0270 2.86852 1.11171 5.02243
-31.0107 151.9200 -367.2070 3.29106 0.366401 2.03845
-31.1494 152.9200 -367.4030 2.65725 0.754014 1.45232
-31.1265 152.4200 -367.2070 3.08845 0.730295 1.60064
-37.2063 153.2756 -367.5890 -4.74041 -1.50382 3.65364
-31.1494 153.4200 -367.5720 2.82644 1.46919 2.7663
-31.0763 153.4200 -367.7070 1.00868 0.641862 0.543475
-32.1242 155.4200 -367.2070 3.14797 1.23493 1.71708
-32.1494 155.4683 -367.2070 3.46771 2.10911 1.41907
-117.3498 69.0944 -367.1400 0.737556 -0.720518 -6.03776
-148.6494 68.5696 -366.7070 1.84536 -2.55389 -0.497314
-107.6762 67.0851 -365.5490 0.844389 -4.47253 -3.50922
-146.6494 71.2285 -366.7070 -1.11176 1.84563 0.57302
-146.4132 71.4200 -366.7070 -3.16056 1.83637 -0.186083
-74.4262 68.9696 -365.8820 0.201127 -2.2303 -5.76079
-122.3047 71.1392 -367.3450 0.265459 2.13133 -5.79114
-61.5157 81.4562 -367.4360 1.65416 0.163934 -5.99773
-146.3090 86.4200 -366.7070 -3.10099 -0.15315 0.46949
-146.6617 90.4200 -366.7070 -4.53302 -0.436357 1.07998
-147.6494 93.8492 -366.7070 -0.796544 -2.99673 0.624867
-74.7055 92.7752 -367.2550 1.45209 3.83781 -4.52161
-148.1494 95.4200 -366.7410 2.32357 1.53716 -1.18493
-148.1494 95.4435 -366.7070 2.43243 1.62508 -1.0743
-35.6641 132.4200 -366.7070 -4.03656 -0.681534 -1.3931
-35.7773 134.6127 -366.6440 -6.09039 -0.285247 -0.0124688
-27.7822 141.9701 -367.7240 5.39827 1.29916 -1.09203
-30.1797 148.8534 -367.3570 5.54023 1.70447 0.796361
-31.3661 153.9252 -367.5970 5.42286 2.36042 1.86354
-32.7944 156.0254 -366.4590 4.16 2.38355 3.43909
-37.3025 158.7513 -366.0830 -3.2358 -2.04743 4.89251
-129.1247 62.2887 -365.4030 -1.56574 -4.1796 -4.07724
-135.6143 63.6092 -364.5870 -1.85638 -5.27312 -2.11585
-148.6494 68.4200 -366.2100 2.00575 -2.31533 -0.695278
-148.6494 68.4193 -366.2070 1.97901 -2.28599 -0.54773
-148.1371 68.8616 -366.2020 3.22055 -5.27438 -0.571028
-103.1809 69.4611 -367.2760 0.657468 -4.21803 -4.04848
-145.7238 69.6549 -365.9110 -0.685579 -5.78777 -0.624752
-97.4610 72.6767 -369.1490 1.36105 -3.41373 -4.5364
-70.7294 70.4798 -365.8180 0.30065 -2.23611 -5.84104
-146.4575 71.9200 -366.2070 -3.84521 -0.148267 -0.754491
-146.7495 73.4200 -366.2070 -3.71068 0.13226 -1.42986
-146.1494 85.3306 -366.2070 -2.61566 0.772311 1.15615
-146.1494 85.4200 -366.2920 -3.30348 1.19768 1.68174
-146.2679 85.6479 -366.6870 -6.1751 -0.352045 0.551411
-146.1494 85.7431 -366.2070 -3.99059 -0.276015 1.02369
-146.2265 86.4200 -366.2070 -3.0217 -0.305508 0.740643
-63.6502 87.1471 -367.0820 1.85888 1.94183 -5.58002
-146.6494 90.3260 -366.7070 -1.36273 -0.183183 0.366132
-146.5255 90.4200 -366.2070 -3.19191 -0.37324 0.788718
-147.6494 93.9200 -366.4380 -0.679028 -2.88638 1.11623
-147.6494 94.0281 -366.2070 0.168438 -1.40585 1.41598
-77.7584 96.2818 -363.9280 0.939996 5.47093 -1.99722
-145.5556 95.4781 -366.4510 -1.01807 5.48834 -2.25563
-148.1494 95.7656 -366.2070 2.37748 1.70933 -1.4056
-28.6863 122.4018 -364.9740 -0.257964 -3.46445 -4.55131
-26.1078 126.7460 -365.8890 2.91468 -0.592823 -5.12805
-35.6494 131.9200 -366.4250 -2.67679 -1.3582 -1.53448
-35.6494 131.7048 -366.2070 -2.42226 -1.34896 -1.38735
-35.6828 132.9200 -366.2070 -4.49611 0.116003 0.909235
-126.5207 61.1419 -365.4210 -0.720438 -3.92542 -3.85805
-114.4159 64.9979 -364.7080 1.8268 -4.10889 -3.93506
-110.8356 66.0459 -364.6360 0.9141 -4.65655 -3.65782
-148.6494 68.3240 -365.7070 0.967178 -1.05544 -0.145345
-148.5528 68.4200 -365.7070 2.76312 -2.75091 -0.176316
-147.4895 69.3329 -363.4530 2.63621 -5.2072 1.97044
-96.6993 69.7592 -365.0410 1.93978 -4.92165 -2.68808
-79.6471 66.9307 -364.3380 -1.86477 -3.39514 -4.58677
-63.6670 69.8925 -365.7370 0.854618 -2.61958 -5.49019
-146.5872 72.4200 -365.7070 -3.27778 -0.26407 -0.605016
-146.5570 71.9200 -365.7070 -1.54937 -0.0933843 -0.308487
-146.6494 72.9200 -366.0820 -4.37223 -1.39244 -0.0699937
-83.7742 74.4415 -367.9490 -1.09957 -2.67132 -5.21665
-146.6494 72.9825 -365.7070 -2.35825 -0.535797 -0.174996
-146.7968 73.9200 -365.7070 -3.62041 1.28812 -1.11138
-124.3668 75.8856 -363.5400 -0.189815 5.24784 -2.9987
-119.1176 74.6043 -366.3810 -1.4346 2.51375 -5.29373
-146.2215 83.0339 -365.5730 -6.22972 0.423386 0.411437
-146.1494 84.4923 -365.7070 -3.27641 0.240575 0.602667
-146.1494 84.9200 -365.9500 -2.85286 0.605303 1.05618
-136.4660 81.6400 -366.0880 5.53768 2.78373 -0.347405
-146.1494 85.9200 -366.1590 -4.92366 -0.470582 1.31593
-146.0396 85.9200 -365.7070 -2.62979 -0.153344 0.493432
-146.1494 86.4200 -365.9340 -1.1128 -0.141414 0.314373
-146.4409 90.4200 -365.7070 -4.64224 -0.199646 0.743074
-69.0900 90.5880 -367.2530 1.5044 3.2519 -4.85198
-147.1494 94.4200 -366.1510 0.0204554 2.6447 2.83793
-146.9453 93.6759 -366.6410 -3.99151 -3.66063 1.51642
-147.1494 94.9200 -365.9310 0.713257 3.08248 -4.43539
-147.2562 94.4200 -365.7070 2.13634 -0.2836 1.05319
-147.1731 95.1849 -365.7320 2.5602 2.40025 -1.9913
-148.1494 95.9200 -366.0320 1.76725 -0.0213391 2.19486
-148.6269 96.4200 -365.7070 0.372703 1.87589 -3.42053
-34.6240 130.3100 -366.6410 -4.38407 -2.88095 -3.26089
-35.6494 131.4200 -365.9480 -2.28169 -1.15989 -1.51741
-35.6494 131.0096 -365.7070 -2.51531 -1.39611 -1.71554
-35.6494 132.4892 -365.7070 -2.5659 1.58742 1.78465
-34.6805 149.7094 -365.9110 -2.99137 -0.509789 4.77812
-32.1714 153.7266 -365.7870 3.52665 1.24399 4.18285
-35.4098 158.3473 -365.4050 1.24275 1.1637 4.8967
-148.1494 68.7605 -365.2070 -1.27468 1.80275 -0.108655
-58.5336 74.1204 -365.9800 1.98627 -1.43173 -5.61098
-146.6494 72.9200 -365.6080 -1.89919 -0.275122 -0.262685
-147.1494 73.9705 -365.2070 -1.45591 1.15333 -1.14298
-147.1494 73.9200 -365.2470 -1.49356 0.888831 -1.14283
-146.7120 74.4200 -365.2070 -4.28746 1.80032 -0.742922
-89.8603 75.1524 -365.4500 0.706498 -4.48118 -3.44192
-145.7528 84.1443 -362.7110 -6.04847 0.647417 -0.730004
-146.1494 84.4200 -365.6440 -3.83486 0.24366 0.867011
-145.9229 84.4200 -365.2070 -4.47445 0.422772 0.840645
-57.7364 82.4651 -366.2080 2.43344 0.840015 -5.52933
-146.0156 85.4200 -365.7070 -1.55206 -0.055292 0.282981
-145.9341 85.4200 -365.2070 -4.20774 1.52216 0.73145
-145.9854 86.4200 -365.2070 -2.31596 -0.158989 0.407799
-146.4212 89.9200 -365.7070 -1.54944 -0.080963 0.290379
-146.3223 89.9200 -365.2070 -3.0784 -0.171996 0.601493
-62.8680 90.4102 -365.0250 1.85944 3.76756 -4.48608
-143.7982 94.6118 -367.7120 2.40303 4.78257 0.587483
-147.2807 94.9200 -365.2070 2.98758 -0.814848 0.56525
-146.4910 94.6416 -365.0060 -5.71022 -0.883801 1.47751
-141.6378 94.7920 -365.2660 0.728924 -1.00499 -0.878652
-142.1336 94.9200 -365.2070 -0.447358 -0.009547 -0.0934865
-146.7766 95.3730 -365.4810 -0.200077 -2.38997 -4.61298
-141.6494 95.0781 -365.2070 0.901467 1.61944 -0.760801
-145.7996 96.5390 -364.9190 -1.635 4.45009 -2.80431
-148.1494 96.4200 -365.6710 0.741227 2.1969 -4.04662
-148.6494 96.4232 -365.7070 0.0100514 0.0714055 -0.133267
-148.1494 96.9200 -365.3860 1.84847 1.48012 -1.90876
-148.1494 97.1432 -365.2070 1.39988 0.780534 -0.785114
-35.1494 130.4200 -365.4970 -3.04085 -1.98648 -1.20457
-35.1494 130.1023 -365.2070 0.359038 -2.82525 -0.277582
-35.6494 130.9200 -365.6090 -1.59942 -1.30544 -0.817545
-35.6494 132.4200 -365.6810 -2.20199 0.747958 1.29196
-35.6494 132.0534 -365.2070 -2.0035 1.9111 1.56259
-34.1990 145.9703 -365.2110 -3.54539 1.08211 4.2661
-34.2864 153.6184 -364.9760 -0.556591 -0.0898417 5.1363
-38.3447 162.0876 -365.0760 -0.203209 1.27217 1.40135
-40.1727 160.7173 -366.8590 -3.68804 -0.603582 4.0224
-100.4791 67.4434 -362.2200 1.57582 -5.46699 -0.7481
-148.1494 68.6563 -364.7070 2.35723 -1.7861 -0.276784
-82.3138 70.8674 -365.7930 -2.11291 -3.52444 -4.62578
-54.8256 73.8926 -364.2800 2.74799 -1.39573 -5.32756
-146.7013 74.4200 -364.7070 -3.8563 0.848932 -0.0257125
-145.9195 84.9200 -365.2070 -3.12054 0.0778465 0.37464
-145.7454 85.4655 -364.2160 -6.18132 0.145139 0.904105
-145.8979 86.4200 -364.7070 -3.09084 -0.224979 0.52232
-146.2259 89.9200 -364.7070 -4.52126 -0.245075 1.23155
-141.2360 93.8715 -364.6860 4.98317 2.49659 -2.65193
-141.6494 94.9200 -364.7870 0.159931 -0.0196195 0.539854
-147.1364 95.3297 -365.1330 2.14135 -2.79553 2.97976
-147.3473 95.4200 -364.7070 2.11948 -0.259202 0.603691
-146.6774 95.5334 -364.7460 -4.308 -0.222415 3.15681
-147.1494 95.8716 -364.7070 -0.384414 -4.12162 -0.0146413
-84.5597 96.8795 -363.2370 -0.732565 5.65519 -1.22133
-147.4204 94.4008 -366.6340 0.576735 4.40549 -1.39875
-147.7821 96.9200 -364.7070 2.92007 1.46537 -1.36792
-34.6930 128.9200 -364.7070 -3.42539 -1.97156 -1.35331
-35.0266 129.4200 -364.7070 -3.28565 -0.819499 -1.06113
-35.1494 130.1024 -364.7070 -1.87752 -2.56592 -0.606039
-35.6494 131.6079 -364.7070 -1.73043 1.80803 2.00829
-35.6494 131.9200 -365.0550 -1.99388 1.82156 1.61887
-148.1494 68.6581 -364.2070 1.91023 -2.1206 0.2258
-146.8868 73.9200 -364.2070 -2.99181 0.302553 0.357654
-52.7314 80.0952 -363.9320 3.37367 0.447246 -4.93123
-145.8192 86.4200 -364.2070 -3.08605 -0.243561 0.523027
-146.1494 89.4200 -364.5780 -1.70334 -0.114375 0.566142
-146.1938 89.4200 -364.7070 -1.50228 -0.096345 0.516851
-146.1494 89.9200 -364.4550 -3.00578 -0.169549 0.877237
-146.1494 90.4200 -364.3350 -3.05996 -0.175297 0.725419
-139.8535 87.8387 -365.0280 5.53183 2.17827 -0.549679
-146.1494 90.9200 -364.2110 -3.07637 -0.184256 0.718001
-146.1494 90.9343 -364.2070 -3.58498 -0.239844 0.836674
-147.6494 95.9200 -364.5220 0.513193 -0.979276 1.48186
-147.2869 96.2476 -364.4310 3.42192 -0.290365 2.43621
-146.4465 95.9975 -364.3280 -3.66069 2.23063 3.06705
-147.6494 96.3646 -364.2070 0.750568 -2.058 2.29366
-147.6494 96.9200 -364.4110 2.18398 2.31238 -2.27765
-147.6494 97.1214 -364.2070 0.96344 2.01274 -2.23781
-34.6494 128.5777 -364.2070 -3.6048 -2.1062 -0.606066
-35.0905 129.9200 -364.2070 -4.42885 -0.982485 0.679001
-35.1494 130.1977 -364.2070 -4.01121 -0.658218 1.15577
-35.6494 130.9200 -364.5250 -0.276376 0.766188 2.1314
-35.2858 132.2209 -364.9460 -5.08419 1.31582 2.55611
-35.1494 130.4906 -364.2070 -2.91592 0.715485 2.00261
-35.6494 131.4200 -364.5470 1.59428 0.330531 2.11492
-71.5953 64.6228 -363.9200 0.0976292 -2.90156 -5.40654
-148.1494 68.8597 -363.7070 1.47545 -2.60164 1.01271
-140.9811 66.7757 -366.3930 -2.86107 -5.31349 -1.23942
-145.9978 69.8724 -363.0990 -1.50406 -5.1212 2.39762
-94.1076 70.5452 -363.2170 3.26409 -4.81861 -0.876444
-146.6494 73.6355 -363.7070 -3.637 -1.83113 2.22906
-146.6494 73.4200 -363.8090 -1.79874 -0.781864 1.3329
-146.7757 73.9200 -363.7070 -3.84347 -0.0480157 0.702551
-146.5265 73.4200 -363.7070 -2.37006 -0.905887 0.944974
-146.5803 74.9985 -363.7580 -6.14181 0.839712 -0.611076
-146.4404 79.0526 -363.4120 -6.14904 0.491567 -0.943984
-114.4019 79.3688 -365.0610 -2.8244 4.08968 -3.66557
-145.7283 86.4200 -363.7070 -3.1171 -0.14327 0.373187
-104.0221 85.9429 -367.0340 -2.85369 4.00335 -3.40366
-146.1494 91.4200 -364.0600 -5.13633 -0.496259 1.18155
-146.0563 91.4200 -363.7070 -3.05 -0.250127 0.580759
-146.1494 91.9200 -363.7150 -3.15338 -0.545673 0.646157
-146.3884 91.7548 -365.0210 -6.16454 -0.384251 1.12101
-146.1494 91.9287 -363.7070 -2.96964 -0.484468 0.604398
-91.8774 93.7397 -366.2980 -2.05613 4.6628 -2.61238
-147.6494 96.4200 -364.1520 0.69008 -2.11862 2.2056
-147.6494 96.8900 -363.7070 0.51445 -2.18855 2.20068
-147.6494 97.4200 -363.9420 2.22567 0.228619 0.494257
-147.2972 96.1418 -364.9370 3.40054 3.3671 -2.43557
-147.7204 97.4200 -363.7070 2.19062 1.27605 -0.572557
-20.7980 122.5092 -363.3580 1.20803 -1.98534 -5.34597
-33.3313 127.2355 -365.9440 -4.18297 -2.80668 -3.32252
-34.1494 127.1589 -363.7070 -4.54946 -1.20333 -1.70504
-34.6338 128.4623 -363.7070 -5.86511 -1.26821 -0.97509
-34.7164 128.9200 -363.7070 -3.90719 -0.489547 0.86823
-34.7485 129.4200 -363.7070 -3.71562 -0.641657 1.1173
-34.7833 130.1192 -363.3510 -5.92298 -0.629717 1.95978
-35.1494 130.4200 -364.1690 -3.2616 0.503616 1.64409
-148.1494 68.9200 -363.5410 1.48514 -2.57938 0.966079
-148.1494 69.0508 -363.2070 0.928001 -1.58044 0.677703
-86.5770 72.5967 -364.7260 -3.03384 -4.17153 -3.43188
-146.4989 73.4200 -363.2070 -2.41375 0.368297 0.149146
-146.6494 73.2758 -363.2070 -0.836861 0.873243 0.0461681
-146.6494 73.7029 -363.2070 -1.27969 -0.680874 0.0918831
-146.7474 74.4200 -363.2070 -2.30874 0.349215 -0.333504
-146.6974 74.9200 -363.2070 -3.10964 0.317796 -0.615811
-121.1338 76.9614 -362.9720 -1.99821 5.25718 -2.42951
-145.6494 85.4200 -363.5150 -4.70903 0.475836 0.597298
-145.6288 85.4200 -363.2070 -4.19899 0.316243 -0.236514
-145.6494 85.9200 -363.4710 -3.73109 -0.559225 0.791216
-145.6846 86.4200 -363.2070 -3.11368 -0.207187 -0.110658
-145.6494 86.1593 -363.2070 -4.53072 -0.672544 -0.203735
-57.6054 88.2071 -364.0430 2.77807 2.68403 -4.7888
-145.9711 89.9200 -363.7070 -3.10228 -0.129568 0.492484
-145.9524 89.4200 -363.7070 -1.55505 -0.0695816 0.253365
-145.8672 89.4200 -363.2070 -4.64727 -0.145248 0.75633
-145.9970 90.4200 -363.7070 -3.09521 -0.167601 0.517076
-146.0260 90.9200 -363.7070 -3.09285 -0.183035 0.522613
-95.5653 91.9861 -365.4530 -2.6962 4.74258 -2.52814
-146.0341 91.9200 -363.2070 -3.0805 -0.373827 0.498793
-146.1494 92.4200 -363.3280 -2.9558 -0.35248 0.555896
-146.1494 92.6216 -363.2070 -3.47949 0.870926 0.0423214
-66.1026 95.0095 -360.5850 0.00132045 3.73228 -4.6513
-147.6494 96.9200 -363.6770 2.13377 -0.483749 1.45796
-147.6494 97.4200 -363.5780 1.30493 0.623711 -0.15681
-34.1494 126.9200 -363.3650 -2.63434 -1.23014 -0.986135
-34.1494 126.7890 -363.2070 -3.75589 -1.14578 -1.30934
-34.3401 127.4200 -363.2070 -4.14525 -1.16616 0.00640225
-34.6077 127.9200 -363.2070 -5.01033 -2.61713 0.541856
-34.6494 128.4200 -363.6780 -0.458015 -1.4074 -2.22162
-34.6494 127.9591 -363.2070 -1.94814 -2.10251 0.693508
-34.6494 128.7936 -363.2070 1.12543 1.14536 -0.103699
-32.2617 141.7807 -362.2530 -1.42381 2.49814 5.04168
-57.3328 66.1394 -361.6700 1.98172 -3.0676 -5.06229
-142.8961 68.1045 -360.2920 -3.60524 -3.796 2.39526
-147.6494 69.4200 -363.0990 2.7097 -2.13438 1.74959
-147.6494 69.9012 -362.7070 0.701981 -1.30152 1.1423
-147.6014 69.9200 -362.7070 0.677154 -2.2522 2.10999
-147.1494 70.1151 -362.7070 0.645224 -1.55575 2.86338
-90.0540 73.7341 -360.7680 -0.512379 -5.06142 -0.335196
-146.6494 75.4200 -363.1850 -3.21451 0.139742 -0.490166
-146.6494 75.9200 -363.1110 -4.46133 0.190537 -0.952363
-146.7662 75.9200 -362.7070 -1.49525 0.0821685 -0.326021
-146.6918 76.4200 -362.7070 -3.05216 0.398153 0.398776
-146.7244 76.9200 -362.7070 -2.68847 -0.156909 -1.55885
-146.7278 77.4200 -362.7070 -3.64188 -0.0498247 -1.60123
-145.6494 85.9200 -362.9680 -4.20049 -0.375659 -0.920245
-145.7117 86.4200 -362.7070 -2.2303 2.58517 -0.288064
-145.8688 88.9200 -363.2070 -1.55026 -0.0220256 0.2496
-145.7769 88.9200 -362.7070 -3.08442 -0.189869 0.540706
-146.0167 92.4200 -362.7070 -3.87337 -0.45645 0.519387
-93.8812 93.8049 -359.8990 -2.30773 5.19884 1.07214
-146.0643 92.9200 -362.7070 -5.16963 -0.281102 0.728256
-47.9768 90.1822 -362.9870 0.0477671 -1.22374 -5.59952
-34.3587 126.9200 -362.7070 -4.97314 -0.107059 -0.209603
-34.6494 128.4200 -362.9860 -1.67824 -0.409423 2.83526
-34.4181 128.5741 -362.8270 -5.50296 0.235678 2.47171
-23.8490 127.8745 -363.2790 3.66366 2.89403 -3.65079
-123.5631 60.1206 -364.2740 0.746206 -4.62331 -2.83008
-132.1431 61.8006 -363.1300 -1.87689 -5.26289 -2.31647
-118.7436 61.3592 -362.2170 2.36047 -5.23146 -1.846
-146.6494 70.4200 -362.6370 0.03697 -2.61665 3.15841
-146.6494 70.8275 -362.2070 0.0583614 -1.15554 1.2808
-146.6494 72.9200 -362.3970 -0.964471 0.244347 0.404822
-146.5697 72.9200 -362.2070 -2.64293 0.14652 1.60829
-146.6494 72.6055 -362.2070 -2.68731 0.680825 1.80566
-146.9792 77.9200 -362.2070 -2.77605 0.428991 -0.838375
-105.9738 86.4034 -362.4410 -3.37529 5.05198 -0.338252
-145.8311 86.9200 -362.2070 -3.78901 -0.0804404 -1.00893
-138.8245 87.7655 -362.6960 5.68148 0.05537 -1.25762
-145.7143 88.9200 -362.2070 -4.65643 0.56863 0.278387
-139.1494 89.4200 -362.5990 4.57715 1.53181 -2.14714
-139.0284 89.4200 -362.2070 3.09433 0.415817 -0.116738
-145.5909 89.5479 -361.4260 -5.65644 0.714697 -1.13981
-139.1494 89.9200 -362.2080 2.67838 0.618096 -1.12372
-139.1494 89.9216 -362.2070 2.39833 0.491768 -0.955165
-139.2516 90.4200 -362.2070 3.54122 0.842691 -1.25863
-145.7367 91.2333 -361.8850 -6.15693 -0.754186 0.930469
-47.5351 93.7827 -362.8600 0.650697 0.192459 -6.17337
-57.0252 96.6621 -362.3120 -1.23155 0.281597 -6.01572
-140.1486 94.9360 -361.5560 4.6457 2.45055 0.0642946
-44.9656 96.5915 -362.3170 0.784037 0.312329 -6.18886
-18.7845 126.8043 -362.7450 0.92982 2.63782 -5.01773
-74.3493 58.6272 -358.9980 -1.42786 -4.43975 -3.8281
-66.4145 66.1100 -363.6260 0.786631 -2.7954 -5.54751
-140.0909 65.6613 -360.4880 -3.22517 -4.48358 1.54997
-79.5942 61.4741 -359.0690 -3.09076 -4.22969 -3.14118
-61.5492 66.2095 -363.0670 1.27178 -3.16364 -5.2262
-54.0462 69.7512 -362.2050 2.50298 -2.41806 -5.15819
-146.1494 70.9200 -362.1880 -2.07537 -2.4703 2.92136
-146.1494 71.4200 -361.9280 -2.47318 -0.805204 2.01872
-146.1494 71.9200 -361.7910 -3.18676 -1.44643 2.22048
-146.6494 72.4200 -362.1430 -1.55672 0.3547 1.85291
-146.4107 72.9200 -361.7070 -2.56889 -1.70206 0.764524
-125.5097 76.4135 -359.3220 -0.932824 5.97545 1.05212
-130.3297 77.1242 -363.4410 2.13795 5.37018 -1.27
-146.8965 78.4200 -361.7070 -2.29277 0.444937 -0.448385
-146.8577 78.9200 -361.7070 -3.42447 -0.664843 -0.890153
-137.0104 81.7958 -361.0440 4.91167 3.56409 1.17909
-145.8624 87.4200 -362.2070 -3.03306 -0.158262 -0.830193
-145.8798 87.9200 -362.2070 -3.05079 0.119431 -0.871022
-145.8205 88.4200 -362.2070 -3.00662 0.700475 -0.631774
-49.2483 85.5912 -361.4450 0.261367 -1.15521 -5.89629
-139.1012 89.4200 -361.7070 5.09836 0.317522 1.58656
-145.6494 89.9200 -361.9430 1.45145 0.241107 0.0716234
-145.5944 89.9200 -361.7070 -3.82228 0.295111 0.438276
-139.1494 89.9200 -362.2030 0.342393 0.0628281 0.030084
-139.1494 89.6826 -361.7070 2.38273 0.437224 0.343744
-145.6494 90.4200 -361.8770 -2.76402 -0.276263 1.87654
-145.6494 90.8289 -361.7070 -4.01522 -0.477593 0.696096
-139.3693 90.9200 -361.7070 3.85142 0.73982 0.200008
-57.7057 91.1955 -361.7750 0.745372 1.5939 -5.47784
-73.4227 95.2627 -363.2840 1.28446 5.42721 -2.54377
-142.6875 97.8156 -362.2310 3.28482 4.04604 -0.991833
-147.6494 98.4200 -361.7760 -0.421919 -0.0337094 -2.71927
-146.6299 99.3953 -362.6430 -1.40126 2.33726 -1.93752
-147.6494 98.3202 -361.7070 0.491755 -1.76358 -2.98709
-147.8326 98.9200 -361.7070 1.61701 1.56083 -1.27764
-54.7438 97.9556 -362.5170 -0.301245 0.922059 -6.03931
-49.6936 104.2738 -361.5350 0.207398 1.77997 -5.88041
-23.2940 119.2960 -360.8390 0.140115 -4.95487 -3.63266
-31.5812 121.3461 -362.6610 -2.99111 -3.94705 -2.07096
-34.1758 125.4353 -362.0230 -4.93024 -2.34577 -2.8807
-34.6494 125.9200 -361.7490 -1.8044 -0.238008 -2.69824
-34.6494 125.7583 -361.7070 -3.36486 -1.40074 -2.53383
-34.6494 126.4200 -361.7610 -0.958413 1.859 -2.70141
-34.2915 126.7266 -361.6170 -5.64257 1.73579 0.66596
-34.6777 126.4200 -361.7070 -1.99274 2.34517 0.56368
-25.4971 131.7502 -360.0320 4.45328 2.55718 2.57212
-27.3951 137.2328 -361.2630 4.39594 2.34289 2.93579
-29.7626 144.4777 -364.2160 3.01969 2.56833 3.68256
-77.2583 63.1768 -362.2430 -1.50177 -3.74707 -4.61328
-67.5578 62.0376 -362.1480 0.837134 -3.22694 -5.11367
-116.6264 61.8298 -360.0540 2.4164 -5.41523 -0.0829173
-146.2865 72.9200 -361.2070 -2.51523 -1.74238 0.64808
-144.7222 70.9786 -360.3560 -4.35052 -2.8255 3.50097
-50.8903 71.4502 -361.0140 3.61018 -1.72536 -4.71117
-132.8552 78.0235 -359.4860 3.41233 4.71776 1.80706
-147.1494 79.4200 -361.4440 -2.82597 0.459628 -1.1039
-147.1494 79.6914 -361.2070 -1.68749 1.12862 -0.869799
-146.9637 79.9200 -361.2070 -3.97145 1.82304 -1.30496
-114.6328 81.0943 -361.3810 -2.94061 5.19056 -0.287493
-52.4329 91.5238 -362.3100 -0.797466 -1.03946 -6.12912
-52.2785 86.4649 -361.1550 1.21136 0.121251 -5.52343
-139.1494 88.9200 -361.2990 3.15807 0.303391 0.483858
-139.1494 88.7857 -361.2070 3.43622 0.159529 0.640875
-139.1494 89.4200 -361.5910 3.07732 0.228922 0.98744
-145.6278 90.4200 -361.2070 -3.5562 0.192269 -1.4791
-99.9854 90.1003 -362.8890 -3.19004 5.17332 -0.861718
-145.6481 90.9200 -361.2070 -4.84567 -0.313597 -0.367259
-139.4024 90.9200 -361.2070 4.48111 0.627109 1.01167
-41.1231 89.5846 -361.2640 2.4463 -0.0479791 -5.39596
-61.5174 97.5344 -360.8650 -1.65804 1.12854 -5.90449
-147.1494 97.9200 -361.5630 -0.22735 0.956104 1.26104
-147.1494 97.6505 -361.2070 -1.56207 -1.99207 -1.65505
-147.7906 97.9200 -361.7070 0.914869 -0.322704 -0.914746
-147.6494 97.9200 -361.5660 1.79105 -0.505298 -2.3206
-41.9748 97.0066 -362.0650 1.34979 0.224223 -5.87021
-147.1669 99.0364 -360.7230 -1.03269 5.50078 1.75543
-148.1494 99.2567 -361.2070 0.712626 3.01012 -0.0766735
-145.4323 99.7756 -360.3410 0.568865 3.51939 1.46042
-132.6494 102.4200 -361.2360 -0.291357 -2.08323 -2.22603
-132.7733 102.4200 -361.2070 -0.588026 -2.03152 -2.72083
-133.5490 102.0072 -360.7310 -1.14103 -3.63509 -4.95391
-132.1494 102.4200 -361.2910 -0.0330921 -3.01903 -2.42829
-131.6494 102.3501 -361.2070 -0.00487771 -2.20467 -2.2362
-131.6494 102.4200 -361.2770 0.0609412 -2.33458 -2.08883
-134.1494 102.9200 -361.3580 -0.845179 -2.08154 -2.08435
-134.4556 102.9200 -361.2070 -1.03117 -2.11058 -2.08393
-133.6494 102.6184 -361.2070 -0.752574 -2.94271 -3.39125
-133.6494 102.9200 -361.5410 -0.312678 -0.946303 -0.85496
-131.6494 102.7595 -361.7070 0.0135377 -0.588803 -0.464022
-51.2843 100.5503 -362.3490 -0.333724 0.862568 -6.08905
-14.0458 124.2046 -362.2530 1.50674 -0.0957635 -5.54477
-8.0914 121.6096 -360.2050 1.4866 -1.11634 -5.58511
-34.7350 124.0813 -359.9440 -5.55976 -1.30377 -2.11597
-34.8043 125.9200 -361.2070 -4.04266 1.39985 0.753737
-25.8988 134.0220 -364.0020 5.83582 1.34465 -0.856839
