ply
format ascii 1.0
element vertex 877
property float x
property float y
property float z
property float nx
property float ny
property float nz
end_header
-18.1521 120.0631 -323.2480 2.56575 -1.54427 -5.29057
-18.8863 123.2184 -322.7330 3.60143 -1.98951 -4.68433
-19.8478 124.2889 -323.2670 2.55656 -1.26659 -3.57994
-19.7721 124.3645 -323.2070 1.54743 -1.02148 -2.49143
-20.2013 124.6424 -323.4080 1.92326 -0.678732 -2.37454
-20.5549 124.9960 -323.5590 1.8576 -0.751201 -2.38284
-21.2620 126.4102 -323.5150 0.629769 -0.567839 -0.981155
-23.0298 128.1780 -323.6000 2.22527 0.678365 -0.622328
-23.2577 128.4059 -323.2070 2.13525 0.512093 -0.420335
-23.4137 128.5011 -323.2070 3.0047 0.703171 -0.592667
-128.2859 24.8088 -320.4470 -3.58473 3.94117 3.21728
-30.5951 122.0268 -323.2070 -1.79851 -0.84424 -1.20031
-23.8507 128.7712 -323.2070 2.32071 0.286411 -0.397919
-31.8686 122.8747 -323.5190 -2.58374 -0.888178 2.93821
-31.6550 123.0882 -323.2070 -2.9515 -1.17104 1.95493
-32.5757 122.8747 -323.5680 -0.0258012 0.326813 2.33269
-28.3331 133.4813 -323.5780 2.81718 0.949426 1.13881
-28.0079 133.1561 -323.2070 2.80935 0.904795 1.31199
-78.7552 88.3111 -321.1680 3.42016 -0.730975 5.09597
-49.5183 126.9917 -321.0510 1.35575 -4.19739 3.89832
-87.2627 96.9232 -324.9630 0.639214 4.06585 4.68281
-114.4946 68.4297 -323.6530 -1.69801 4.578 3.73973
-80.2533 108.3664 -326.3970 -0.876571 4.62472 4.0366
-108.5633 74.5846 -320.8160 -1.86773 4.98142 0.677181
-49.3804 140.9013 -323.4580 3.21214 0.864217 5.25575
-18.5295 -143.0411 -322.0000 1.55154 -0.182592 5.30918
-27.2727 -140.5229 -323.0360 1.78337 -0.00421497 3.12655
-28.1778 -141.0320 -322.7070 -0.146557 -2.00838 4.32329
-27.8461 -140.6565 -322.7070 0.290626 -0.742172 2.2718
-29.3940 -140.5229 -323.0050 0.61114 0.622961 0.702957
-29.1571 -140.7598 -322.7070 1.77949 1.81391 1.68968
-29.6358 -140.7647 -322.7070 1.74267 1.83045 1.7937
-37.5257 -140.1694 -323.1130 1.22699 1.43829 -2.77619
-38.2328 -140.1694 -323.1980 1.86052 1.74816 -2.13617
-38.9399 -140.1694 -323.1000 2.1969 1.01633 -2.02782
-39.2935 -139.8158 -323.1900 0.307623 -0.278817 -1.55062
-40.7077 -139.8158 -323.1820 1.32032 1.32679 -1.55448
-41.4148 -139.8158 -322.9740 2.07152 1.0667 -1.88589
-41.7684 -139.4622 -323.0350 1.56162 0.945709 -1.88937
-42.4755 -139.4622 -322.8300 1.89208 1.89464 -2.56521
-43.0029 -139.2826 -322.7070 1.22636 1.61259 -2.23256
-42.6919 -139.2459 -322.7070 0.613966 0.778164 -1.9456
-43.2837 -139.3611 -322.7070 3.19141 0.840046 -1.16771
-47.0152 -138.9660 -323.0930 3.99844 2.24048 -4.25361
-57.4929 -145.1274 -324.0370 -4.28319 -2.03171 -3.72719
-49.8039 -136.8912 -322.7070 1.01525 0.165919 -2.05691
-50.0267 -136.8608 -322.7070 -0.0747552 1.89029 -3.13193
-60.6170 -144.7344 -322.5780 -5.26004 -2.14161 -2.48577
-61.9209 -144.0584 -322.8140 -2.51532 -1.12536 -1.81867
-61.8417 -144.1376 -322.7070 -2.76489 -1.06487 -1.11002
-62.2745 -143.7049 -323.1140 -2.34781 -1.06048 -1.94268
-64.3958 -142.2907 -323.0730 -1.78511 -0.559721 -1.23197
-66.7959 -141.1552 -322.7070 -2.04795 -0.532556 -1.12209
-67.2242 -140.8765 -322.7830 -2.71927 -0.735306 -1.54141
-67.1252 -140.9755 -322.7070 -2.18999 -0.643671 -1.19652
-67.5778 -140.5229 -323.0000 -2.49115 -0.674582 -1.74892
-61.8895 -131.7404 -323.9560 4.02597 0.154204 -4.74652
-70.6141 -120.5160 -322.7070 4.58373 -0.745254 -0.870592
-72.4464 -118.2500 -323.7120 5.5316 -1.31228 -2.11545
-87.6703 -125.2601 -322.7070 -3.12115 0.117038 -0.338376
-90.2417 -122.6724 -321.5520 -5.99248 0.69441 1.00076
-79.5426 -104.5628 -323.0140 5.1861 -1.43506 1.05465
-113.7071 -64.8965 -324.6080 -4.34638 3.23108 2.75052
-79.3609 -20.2983 -323.4500 2.43017 -4.32172 3.69616
-70.4382 25.2707 -318.8730 2.47569 -3.5602 3.9902
-72.4320 46.7042 -320.1270 3.72686 -2.21124 4.51982
-19.0575 124.2057 -322.7070 1.39564 -0.900435 -2.65853
-19.1407 124.2889 -322.7480 1.47791 -0.951195 -2.58779
-19.4942 124.6424 -322.9350 0.930128 -0.569705 -1.39692
-72.5588 69.7619 -323.2130 2.54283 -3.20941 4.68276
-26.9917 119.9734 -322.7070 -3.67133 -0.504459 -1.32239
-27.4110 120.2612 -322.7070 -3.55673 -0.407233 -1.42858
-29.1356 121.3650 -322.7070 -2.56561 -1.35246 -1.4402
-28.7693 121.1895 -322.7070 -3.16721 -0.912685 -1.66232
-29.7353 121.4725 -322.7070 -2.37445 -1.37071 -1.35398
-30.1008 121.8140 -323.1320 -2.97215 -1.53853 -1.85395
-29.7729 121.4860 -322.7070 -1.89336 -0.884857 -0.967316
-31.1615 122.8747 -322.7360 -2.48288 0.383181 0.903423
-31.1259 122.8391 -322.7070 -3.04007 0.425553 1.3942
-31.5150 123.2282 -322.7440 -3.51379 -0.481778 3.06211
-27.6260 132.7741 -322.8670 2.92963 0.880248 1.50483
-27.2363 132.4567 -322.7070 2.45188 0.618545 1.21731
-27.9795 133.1277 -323.1810 2.71644 0.857773 1.35188
-30.8663 134.3245 -322.6140 4.94405 1.74707 3.18687
-34.9247 126.1330 -323.2660 -4.00845 -0.138882 4.55945
-73.0567 92.1472 -324.3040 1.52121 -3.14309 5.12318
-36.8557 129.7200 -321.0080 -2.28425 0.209254 5.12852
-44.5705 131.9392 -323.1670 -1.94696 -1.77048 5.62515
-69.4085 105.3224 -321.8530 0.0514273 -1.45649 5.70481
-41.6081 139.6428 -323.4810 3.31672 1.70054 4.17836
-79.4693 104.5319 -323.3410 -0.228354 3.54839 4.86485
-28.3333 -140.8765 -322.5920 -0.0756918 -0.92182 2.13825
-29.0405 -140.8765 -322.5120 0.941313 0.631569 3.68549
-29.7476 -140.8765 -322.5490 1.02809 1.16161 3.67007
-30.4547 -140.8765 -322.5350 0.550681 0.393801 3.06258
-31.1618 -140.8765 -322.5050 1.04231 0.508016 2.87607
-31.8689 -140.8765 -322.3990 1.79256 0.969356 3.53241
-32.2224 -140.5229 -322.6190 1.09987 0.764652 1.74033
-32.9295 -140.5229 -322.5210 1.53533 0.992085 2.48737
-33.6366 -140.5229 -322.3560 1.52808 0.766077 2.71503
-34.3438 -140.5229 -322.2930 1.13769 0.627085 1.78765
-34.4112 -140.5904 -322.2070 1.99526 0.139588 2.41286
-43.5361 -139.1087 -322.5730 1.07109 1.30838 -1.74369
-44.2432 -139.1087 -322.4200 2.22886 1.59176 -2.36138
-44.5968 -138.7551 -322.2840 1.33856 0.665842 -1.78994
-45.3039 -138.7551 -322.3090 2.5868 2.11191 -1.62497
-45.7248 -138.4690 -322.2070 1.85237 1.17414 -1.8991
-45.5274 -138.5317 -322.2070 1.61301 0.688078 -1.89597
-46.2811 -138.4850 -322.2070 2.63358 2.12856 -2.12488
-46.9286 -138.2585 -322.2070 2.06882 1.30014 -1.95575
-47.2449 -138.2283 -322.2070 2.93222 1.14243 -2.07097
-48.1323 -138.0480 -322.4040 3.23181 1.55666 -2.95046
-47.9026 -137.8183 -322.2070 1.29174 0.670588 -1.3577
-48.4859 -137.6945 -322.2740 1.8508 0.217916 -2.04554
-48.8394 -137.3409 -322.3960 1.13158 -0.389968 -2.0769
-49.5465 -137.3409 -322.6550 2.53173 0.311527 -3.0466
-50.2537 -136.6338 -322.4450 0.625268 0.900828 -1.85324
-50.9608 -136.6338 -322.4720 3.25973 0.276509 -0.56702
-51.3143 -136.2803 -322.3870 0.884133 0.72382 -2.06536
-52.0214 -136.2803 -322.3860 2.4275 0.922751 -2.79049
-52.3750 -135.9267 -322.2750 2.43469 0.737794 -2.12751
-61.5674 -144.4120 -322.3200 -2.77496 -1.06653 -1.05703
-61.4896 -144.4898 -322.2070 -2.90087 -1.16575 -0.989869
-53.0821 -135.9267 -322.6630 0.151136 -2.10018 -0.27589
-52.8483 -135.6929 -322.2070 1.87515 0.822292 -2.10943
-52.4683 -135.8334 -322.2070 2.0709 0.902199 -1.91331
-53.4356 -135.5732 -322.4220 2.28989 0.923008 -1.93731
-53.7560 -135.2528 -322.2070 2.18607 1.08318 -2.03628
-53.4437 -136.2360 -323.2040 4.39967 1.04576 -4.29095
-54.4963 -135.2196 -322.6300 3.72724 1.31766 -3.11192
-54.2303 -134.9536 -322.2070 1.35761 0.399658 -1.06444
-54.8498 -134.8661 -322.3990 2.4323 0.931492 -1.85552
-55.0931 -134.6228 -322.2070 2.42132 1.02105 -1.76634
-57.2531 -135.0759 -324.0420 4.14593 1.02039 -4.53632
-56.4111 -134.0119 -322.2070 3.6776 0.258667 -2.72296
-59.3058 -131.5439 -322.2070 2.40077 0.697041 -2.189
-59.6801 -131.4500 -322.2070 2.8265 1.34388 -1.81459
-61.3865 -130.0890 -322.2070 2.51968 0.43921 -2.3993
-61.8636 -129.8590 -322.2070 3.40212 0.149837 -2.22172
-63.5964 -128.0563 -322.2070 2.49127 -1.53479 -2.15848
-63.9692 -127.7219 -322.2070 3.7132 0.420014 -1.21443
-66.7236 -124.4065 -322.2070 2.8355 -0.307861 -1.29734
-66.8707 -124.2595 -322.2580 3.2807 0.0620705 -1.5052
-66.9845 -124.1456 -322.2070 2.78267 0.341615 -1.27157
-70.1439 -120.9863 -322.2070 2.98115 -0.468146 -0.503193
-70.4062 -120.7239 -322.5770 3.34807 -0.468532 -0.858486
-70.6422 -120.2528 -322.2070 3.47287 -0.415821 -0.417553
-72.2571 -118.3732 -321.7310 5.89725 -0.937792 1.38221
-87.3683 -125.6652 -322.2070 -2.34355 0.0840383 -0.274923
-81.9330 -99.4536 -323.6090 4.84866 -1.30179 1.29107
-101.0225 -106.6581 -322.9480 -5.51007 1.8373 1.32894
-88.0052 -69.6251 -323.0800 2.96763 -3.142 4.51272
-79.4297 -13.7245 -320.6880 1.41405 -4.35536 4.23655
-76.5715 -10.6312 -322.4360 2.06951 -4.84547 3.35497
-18.2158 123.0924 -322.2070 1.61284 -1.36784 -2.64792
-18.1960 123.3442 -322.2070 0.862843 -1.0066 -1.71241
-18.4336 123.5818 -322.4040 1.34899 -1.27936 -2.61521
-18.7871 123.9353 -322.5830 1.38178 -0.903065 -2.68736
-130.8544 12.8944 -323.7970 -3.93031 3.95829 2.59795
-24.5737 118.0899 -322.6700 -5.07043 -1.06211 -2.93785
-25.8688 118.9750 -322.2070 -2.74229 -0.0602392 -1.51712
-25.5619 118.6893 -322.2070 -2.99689 -0.131799 -1.46296
-26.2294 119.3214 -322.2070 -3.09918 -0.468158 0.0541586
-26.6402 119.6177 -322.2070 -2.30892 -0.296943 -0.26917
-27.8642 120.5150 -322.2070 -2.25701 -0.226231 -0.764568
-28.2998 120.7866 -322.2070 -3.43521 -1.51088 -0.633771
-28.6866 121.1069 -322.6500 -2.57774 -1.47106 -1.62912
-28.3799 120.8001 -322.2070 -2.80962 -2.00762 0.724554
-30.4544 122.1675 -322.3760 -1.07301 0.256318 1.40402
-30.8079 122.5211 -322.5900 -2.82021 0.382741 0.949541
-31.5669 123.5361 -322.5580 -4.68605 0.10118 4.07828
-30.2521 122.3698 -322.2070 -1.644 0.431261 2.64793
-128.4114 31.2505 -322.0890 -2.95523 4.42597 3.28467
-26.9188 132.0670 -322.3730 2.891 0.667354 1.40998
-26.6895 131.8377 -322.2070 2.74315 0.69341 1.34288
-129.9240 38.1792 -328.2610 -2.97083 5.18848 1.58202
-71.3848 99.9831 -322.4960 0.426576 -2.17391 5.59018
-114.8484 60.1898 -322.7070 0.477487 0.463309 -0.665446
-114.9539 60.2954 -322.6030 1.13861 -0.120734 -1.58682
-115.0564 60.1930 -322.7070 0.872127 -0.0605696 -1.21543
-115.0263 60.3678 -322.7070 0.518895 -0.734038 -0.723154
-113.6588 62.6372 -320.3060 -2.29132 4.90236 2.79439
-94.3094 95.6416 -326.9190 1.65495 5.14982 3.0062
-49.6352 138.2428 -322.0740 3.882 -0.636964 4.87215
-69.8065 126.7541 -321.2540 -3.24887 1.79033 4.136
-25.7147 -148.1347 -320.8830 -1.53562 -3.65962 2.38636
-29.8742 -141.5985 -322.3990 2.27639 1.50983 5.39877
-34.6973 -140.8765 -321.9940 3.1226 0.762277 2.97703
-35.0509 -140.5229 -322.0060 0.844537 0.513191 2.1705
-35.7580 -140.5229 -321.9880 1.35382 1.04692 3.6083
-36.1115 -140.1694 -322.1650 0.81523 0.611878 1.97916
-36.8186 -140.1694 -322.0540 0.934323 0.328166 3.00566
-37.5257 -140.1694 -322.0070 1.0134 0.806068 2.88546
-38.2328 -140.1694 -321.9980 1.03831 0.876718 2.80787
-38.9399 -140.1694 -321.9540 1.04553 0.848788 2.84637
-39.6471 -140.1694 -321.9220 0.858852 0.793232 2.92911
-38.0627 -140.8591 -321.6720 2.91643 2.1623 4.99435
-40.3542 -140.1694 -321.9140 2.08222 1.23842 2.98822
-40.7077 -139.8158 -322.0080 1.00755 0.226773 1.77141
-41.3314 -139.8992 -321.7070 1.96224 -0.721131 3.31043
-42.4755 -139.4622 -322.0840 0.588294 0.534846 0.445344
-42.2534 -139.6843 -321.7070 1.99804 1.81651 1.71068
-42.6774 -139.6641 -321.7070 2.48905 1.23841 2.07976
-46.3646 -138.4016 -322.1330 1.61251 0.818595 -1.39034
-47.4252 -138.0480 -322.1070 2.10726 0.48877 -1.23293
-59.2238 -145.6040 -321.7070 -3.32774 -1.44413 -1.23865
-58.8118 -145.7534 -321.7070 -3.81537 -1.8768 -1.17926
-60.2255 -145.1914 -321.7070 -3.4897 -1.17805 -0.997448
-59.9962 -145.2761 -321.7070 2.09185 0.0577044 -0.0780322
-61.2414 -144.7380 -321.7070 -2.81965 -1.24075 -0.812759
-52.7285 -135.5732 -322.1220 0.647192 0.297917 -1.28463
-53.7892 -135.2196 -322.1820 2.04158 0.52827 -1.44535
-55.2034 -134.5125 -322.1140 2.44333 1.12854 -1.72562
-55.5570 -134.1589 -321.7610 2.36839 0.964756 -1.65213
-55.6277 -134.0882 -321.7070 2.63488 0.90668 -1.61385
-56.0079 -133.9028 -321.7070 2.84843 0.901626 -1.80193
-56.6176 -133.8054 -322.1270 2.39486 0.26224 -1.74661
-56.9712 -133.4518 -322.0930 2.51202 0.00831435 -1.74064
-57.3247 -133.0983 -322.1100 2.6218 0.169991 -1.95588
-57.6783 -132.7447 -322.0400 2.48223 0.149054 -1.81608
-58.0318 -132.3912 -322.0100 2.56011 0.0426365 -1.74861
-58.3854 -132.0376 -322.0030 2.61159 -0.10835 -1.56947
-58.7389 -131.6841 -322.0510 1.89602 0.29771 -1.79863
-59.7996 -131.3305 -322.1590 2.33165 0.503365 -1.96048
-60.1531 -130.9770 -322.0520 2.29498 0.337769 -2.00845
-60.5067 -130.6234 -321.9940 2.32502 0.213119 -2.07461
-60.8603 -130.2699 -321.9490 1.83295 0.10808 -1.63121
-62.1161 -129.4044 -321.7070 2.23691 0.0182764 -0.678686
-62.4684 -129.0496 -321.7070 2.9877 -0.0157873 -0.979742
-62.8177 -128.6917 -321.7070 3.75137 0.0180414 -1.18417
-63.1823 -128.3493 -321.7070 3.75742 0.0419996 -1.12274
-64.2704 -127.3161 -321.7070 2.28242 -0.0690579 -0.645032
-64.5883 -126.9269 -321.7070 3.77567 -0.476595 -0.978203
-65.7824 -125.3477 -321.7070 3.08611 -0.369797 -0.887019
-65.8100 -125.3201 -321.7230 2.95535 -0.358291 -0.840965
-66.1636 -124.9666 -321.9440 2.94528 -0.326264 -1.16132
-66.5171 -124.6130 -322.1390 2.91886 -0.4729 -1.38924
-67.2242 -123.9059 -322.1260 2.86653 0.134196 -1.16107
-67.5778 -123.5523 -322.0310 2.83842 0.124472 -0.82334
-67.9313 -123.1988 -322.0330 3.38655 0.100713 -1.14164
-68.2849 -122.8452 -321.7830 2.51854 0.166611 -0.620378
-68.6384 -122.4917 -321.8280 3.19261 -0.013614 -1.02561
-68.9920 -122.1381 -321.7610 3.02875 0.173662 -0.920716
-69.2218 -121.9083 -321.7070 4.99206 0.577384 -0.962872
-69.3597 -121.7987 -321.7070 6.18063 -0.629828 -0.281165
-69.3915 -121.7386 -321.7070 4.54353 -1.20029 0.789892
-69.6991 -121.4310 -321.9900 3.33681 -0.342763 -0.930725
-70.0526 -121.0775 -322.0990 2.58865 -0.327176 -0.566413
-70.6316 -120.2422 -321.7070 2.34697 -0.16147 0.206671
-75.6437 -112.4472 -321.1150 5.10811 -1.21866 1.94983
-87.7303 -125.3201 -321.9690 -4.40571 0.178473 -0.554496
-87.3768 -125.6737 -322.1060 -1.82378 0.0599613 -0.217635
-87.7491 -125.3388 -321.7070 -3.91183 0.142079 -0.241605
-87.7372 -49.1305 -321.2390 2.10352 -2.79848 5.12986
-85.2512 -23.2720 -318.5690 2.16885 -2.49738 4.99025
-77.4429 -15.9837 -324.3820 2.30549 -4.89071 3.11689
-70.4961 23.2360 -319.9950 2.30942 -3.83584 4.18265
-125.0486 -9.4764 -322.0380 -5.71024 1.69925 1.75873
-17.8019 112.9912 -321.7170 -2.91187 -1.04978 -5.02071
-17.1112 121.5523 -321.7070 2.07102 -0.71892 -2.257
-17.3729 121.8140 -321.8240 2.03491 -0.795307 -2.17232
-17.7265 122.1675 -322.0310 2.15288 -0.889341 -2.19005
-18.0800 122.5211 -322.1920 3.15218 -0.600033 -1.6253
-25.1511 118.2785 -322.0780 -4.15961 -0.951563 -1.06446
-25.1893 118.2403 -321.7070 -2.66597 -1.50885 -0.062944
-25.5046 118.6320 -322.1910 -2.92991 -0.242091 -1.15665
-28.6866 121.1069 -321.9890 -2.7535 -0.808973 2.00559
-28.5204 121.2731 -321.7070 -2.80073 -1.48167 2.24937
-29.0402 121.4604 -322.0120 -2.78901 0.0805132 1.47826
-29.3937 121.8140 -322.0440 -2.78062 0.100107 1.4718
-29.7473 122.1675 -322.0790 -2.71622 0.0220555 1.40825
-30.1008 122.5211 -322.0690 -3.80265 0.0629955 2.60794
-26.2117 131.3599 -321.8690 2.76647 0.658602 1.36805
-25.9693 131.1175 -321.7070 2.77672 0.62512 1.40454
-26.5653 131.7135 -322.1150 2.77191 0.694574 1.35944
-121.9651 46.5939 -319.4110 -1.55987 4.97558 3.41576
-77.9333 91.9736 -322.0940 1.61975 -0.584192 5.97291
-55.8686 117.0475 -323.1070 0.279548 -4.33941 4.26007
-81.8848 96.0538 -322.6460 0.212368 1.70712 5.96594
-77.8226 96.3120 -322.0710 -0.0167229 -0.288054 6.12347
-75.9842 104.6263 -322.1590 -0.0528032 1.63664 5.77386
-61.9237 111.4721 -322.6140 0.10085 -3.08474 5.30213
-68.6222 110.7827 -321.5780 -0.405058 0.434341 6.05631
-61.0614 144.3996 -321.6280 0.273212 2.70541 5.10561
-30.4656 -149.4236 -320.7570 -3.16904 -4.63759 0.705758
-34.2238 -149.8627 -320.5280 -3.56669 -4.2734 0.867874
-41.4148 -139.8158 -321.6610 1.0567 -0.269545 2.18995
-42.1219 -139.8158 -321.5210 -0.64681 0.500629 3.35327
-43.0320 -139.6129 -321.2070 2.2747 -1.91555 2.4227
-57.7490 -145.9860 -322.1620 -4.97846 -3.02294 -1.97001
-57.6889 -146.1692 -321.2070 -4.31714 -2.64992 -0.871386
-58.7389 -145.8262 -321.3740 -2.72433 -1.53004 -0.452083
-58.7050 -145.8601 -321.2070 -2.74333 -1.59769 -0.395137
-59.7966 -145.4696 -321.2070 -2.10285 -1.08705 -0.661873
-59.8038 -145.4684 -321.2070 -1.57509 -1.05289 -0.572555
-51.3143 -136.2803 -321.4260 0.454689 0.413747 0.220387
-51.2316 -136.3630 -321.2070 2.20413 1.98277 1.02758
-51.3894 -136.3554 -321.2070 2.18499 1.98824 1.01496
-60.7208 -144.9797 -321.2070 -2.15711 -0.97111 -0.468524
-61.2138 -144.7655 -321.6460 -2.82677 -1.5477 -0.692904
-61.0908 -144.8886 -321.2070 -1.58565 -0.959068 -0.380432
-55.9105 -133.8054 -321.4390 0.895303 0.308079 -0.459474
-63.0855 -128.2525 -321.2070 0.743822 0.0234487 -0.203741
-64.8039 -126.4353 -321.2070 3.48057 -1.03714 -1.01572
-64.9261 -126.2040 -321.2070 2.90307 -0.670862 -0.793586
-65.1029 -126.0272 -321.3690 3.30834 -0.36588 -1.01234
-65.4565 -125.6737 -321.4780 2.77202 -0.317079 -0.798874
-68.2849 -122.8452 -321.2410 2.2 0.34416 0.326939
-68.2778 -122.8523 -321.2070 3.77897 0.664578 0.522027
-68.6384 -122.4917 -321.4340 2.94415 0.177901 0.618713
-68.9920 -122.1381 -321.5560 3.17646 0.398279 0.907862
-69.6991 -121.4310 -321.4850 2.78527 -0.143343 0.13277
-69.8808 -121.2493 -321.2070 1.79759 -0.0904732 0.00864557
-71.0753 -119.9788 -321.2070 4.42851 0.178486 2.01611
-87.4200 -125.7169 -321.2070 -3.89053 0.139506 -0.447816
-101.1629 -103.2135 -320.6500 -4.26329 1.78032 3.9558
-87.2976 -83.9322 -322.1690 3.62814 -2.30611 4.37765
-113.6671 -50.1487 -321.9260 -3.60783 2.75414 4.11321
-113.4517 -46.3062 -321.3780 -3.37387 2.50589 4.57374
-69.8373 20.1690 -320.1900 3.11819 -3.38811 3.67034
-66.7302 29.4938 -323.7370 3.44131 -3.52214 3.76136
-71.0423 42.5602 -320.6020 3.49079 -2.56167 4.5077
-12.9761 112.3628 -320.9140 1.89199 -1.82337 -5.35266
-16.1973 118.9979 -322.1060 3.4221 -1.82773 -4.83066
-15.7719 120.2130 -321.2070 2.09846 -1.02392 -2.07278
-15.9587 120.3998 -321.3420 2.13002 -0.837694 -2.33369
-16.3122 120.7533 -321.4760 2.01784 -0.623731 -2.33835
-22.4412 116.0692 -321.2800 -5.91531 -0.594871 -1.97059
-16.6658 121.1069 -321.6020 2.10916 -0.474217 -2.38259
-17.0194 121.4604 -321.6650 1.99756 -0.481453 -2.20131
-24.8011 117.9214 -321.2070 -3.87205 -1.69695 -0.692538
-25.1879 118.2417 -321.2070 -1.52844 -0.326853 -0.221143
-27.2724 120.3998 -321.4070 -1.35016 -0.242088 1.00386
-27.6260 120.7533 -321.4860 -2.52189 0.0373732 0.847119
-27.1147 120.5575 -321.2070 -2.35853 -0.464741 1.66995
-27.9795 121.1069 -321.3080 -2.71257 -0.593158 1.87833
-28.3331 121.4604 -321.2710 -4.16011 -0.520348 2.22282
-32.5155 126.4532 -320.7570 -3.64402 0.363098 4.82742
-25.1511 130.2993 -321.2440 2.63289 0.619006 1.60639
-25.0827 130.2309 -321.2070 2.63205 0.610527 1.60097
-25.5046 130.6528 -321.4380 2.62149 0.654102 1.62873
-25.8582 131.0064 -321.6400 2.72267 0.561514 1.49747
-32.3671 132.8385 -320.7580 1.78246 1.54494 5.43353
-40.3293 134.2133 -322.1800 -0.0955772 1.0613 6.16138
-62.4807 116.3353 -321.1490 -0.182443 -0.766992 6.00198
-66.6208 117.5849 -321.7610 -1.25432 1.04923 6.02026
-69.1009 133.8083 -322.1940 -0.980014 3.03982 5.26998
-24.0784 -144.4577 -320.4410 1.63217 0.206844 5.32511
-39.3436 -149.9691 -319.7410 -3.74855 -3.6685 1.71525
-34.4863 -141.2962 -321.7250 3.29795 2.00985 4.93005
-50.0413 -148.4423 -320.7070 -4.04519 -2.23247 -0.446074
-52.0095 -147.8070 -320.8600 -5.52507 -2.78784 -1.0624
-41.5109 -140.3941 -321.4730 3.64293 1.27169 4.59862
-43.1826 -139.4622 -321.1760 1.79476 0.0539848 1.55042
-43.8897 -139.4622 -320.8380 3.08332 1.13422 2.60793
-44.2432 -139.1087 -320.9900 1.70971 0.734265 1.37301
-44.9504 -139.1087 -320.9130 1.44606 1.80394 0.503808
-45.1561 -139.3145 -320.7070 -0.0950604 2.34458 -0.914624
-46.0110 -138.7551 -320.7880 1.62564 1.12615 1.28343
-45.8540 -138.9121 -320.7070 2.87391 0.411436 1.09066
-55.3407 -146.7371 -321.0330 -5.23503 -3.0997 -1.53726
-46.7181 -138.7551 -320.7850 2.42404 0.652153 0.193631
-46.8171 -138.6561 -320.7070 3.2173 0.244649 -0.552686
-56.6141 -146.5368 -320.7070 -3.68568 -2.39958 -0.851911
-56.6198 -146.5355 -320.7070 -3.25238 -1.90382 -0.637946
-57.6783 -146.1798 -321.1560 -2.37902 -1.98169 -0.575299
-57.5864 -146.2717 -320.7070 -2.45115 -1.97282 -0.55195
-58.2444 -146.0388 -320.7070 -3.22495 -1.81707 -0.762692
-49.5465 -137.3409 -320.9820 1.70297 0.959632 2.09775
-49.2729 -137.6146 -320.7070 2.02743 1.49536 1.72482
-58.6286 -145.9365 -320.7070 -2.35996 -1.36938 -0.541372
-49.9001 -136.9874 -321.0930 1.29046 0.292537 1.68161
-50.6072 -136.9874 -320.7680 2.63481 0.169001 2.49765
-50.7147 -136.8799 -320.7070 1.92588 -0.867305 2.4177
-51.0456 -136.5490 -320.7070 2.12948 1.86012 1.83013
-51.5488 -136.5147 -320.7070 2.20903 1.59698 1.66617
-64.7493 -126.3808 -321.0650 0.95154 -0.293589 -0.517062
-67.2242 -123.9059 -320.7430 0.47257 0.920229 2.97464
-67.1266 -124.0035 -320.7070 0.683768 0.721583 2.99358
-67.5778 -123.5523 -320.9050 1.48833 0.271028 2.59445
-67.1907 -124.7449 -320.4620 3.37149 0.619875 4.63776
-67.9313 -123.1988 -320.9360 2.21108 0.195005 2.58238
-68.5811 -122.6889 -320.9120 5.56607 0.0658989 2.57814
-69.4530 -121.6771 -320.7070 5.32954 -0.508624 0.734725
-69.6991 -121.4310 -320.8270 2.49132 -0.139716 -0.138129
-70.4062 -120.7239 -320.7800 2.63312 0.322604 1.62152
-70.1608 -120.9693 -320.7070 2.66768 0.358413 1.58552
-70.7598 -120.3704 -320.8650 3.03624 0.488361 1.76803
-72.3571 -120.0995 -319.6190 4.50013 -0.272096 4.22553
-85.7664 -127.5988 -320.7070 -3.92256 0.0533607 -0.184946
-86.0967 -127.2220 -321.2070 -2.35239 0.0563596 -0.143974
-86.4346 -126.8528 -321.2070 -3.127 0.167417 -0.278037
-86.7626 -126.4737 -321.2070 -3.11786 0.229195 -0.31197
-87.0897 -126.0938 -321.2070 -3.11691 0.214893 -0.320068
-90.2390 -121.1905 -319.2130 -4.29586 0.867531 3.76819
-82.0968 -106.4057 -319.3130 3.55454 -0.393934 4.94851
-91.6194 -118.6026 -320.7520 0.161319 -0.18242 0.907889
-91.5798 -118.6422 -320.7070 0.0697929 0.468096 -0.0936348
-91.6381 -118.5945 -320.6990 0.504922 -0.803827 -0.561918
-91.5970 -118.5802 -320.7070 -1.64524 -0.386534 -0.489446
-84.9417 -92.3055 -322.5500 4.189 -2.70682 3.29544
-91.6089 -54.0319 -319.4070 1.63595 -2.37332 5.50676
-111.0354 -68.1675 -321.5260 -3.36603 2.70955 4.27358
-71.5704 14.6616 -319.7480 3.49783 -3.66114 3.67505
-14.5296 118.2933 -320.7070 2.48008 -1.14351 -2.51273
-14.7213 118.8088 -320.7070 2.27467 -1.08348 -1.89132
-14.9058 119.3313 -320.7070 2.89849 -1.24968 -3.04674
-14.9166 119.3577 -320.7070 2.08078 -0.863741 -2.15762
-15.2516 119.6927 -320.9020 2.11884 -0.870527 -2.16916
-15.6051 120.0462 -321.0950 2.08031 -0.900751 -2.10015
-78.9688 55.3041 -318.1260 3.15452 -1.12506 5.30377
-127.3600 12.5532 -318.8340 -3.67273 4.21125 1.34181
-24.7027 117.8301 -320.7070 -2.58659 -0.521395 -0.387496
-27.0221 120.6501 -320.7070 -3.86837 0.0397645 0.53079
-125.1570 22.2284 -315.9170 -2.97052 3.26178 4.32308
-24.4440 129.5922 -320.8650 2.64919 0.593269 1.60874
-24.1322 129.2804 -320.7070 2.63499 0.577817 1.59777
-24.7975 129.9457 -321.0530 2.63669 0.610273 1.60377
-27.3870 131.3274 -320.5320 4.0874 1.53156 4.03072
-31.6597 128.7511 -320.1530 -1.0102 1.09318 6.06915
-111.9509 65.8302 -320.3090 -2.08532 4.54029 0.63293
-59.3089 118.9477 -320.9530 -1.12543 -2.37383 5.64122
-110.3764 70.7132 -321.5570 -1.84491 4.72851 3.01246
-46.5983 133.5271 -322.3130 1.18693 -1.68641 5.65426
-107.2776 79.7049 -321.4070 -2.2725 5.27946 2.42131
-63.9388 138.9883 -321.8370 -0.436542 2.9226 5.43606
-47.0812 -149.2794 -319.8830 -4.50336 -3.37746 1.27123
-49.5762 -148.6249 -320.2070 -3.19623 -1.93384 -0.451107
-50.5966 -148.2905 -320.2070 -2.13257 -1.14778 -0.211348
-51.1538 -148.1406 -320.2070 -2.65902 -1.60779 -0.567914
-50.6235 -148.2848 -320.2070 -2.54947 -1.63063 -0.78465
-51.7577 -148.0373 -320.2070 -3.34331 -1.62363 -0.770937
-51.5300 -148.0854 -320.2070 -2.43027 -1.74074 -0.90074
-52.8183 -147.6838 -320.2070 -3.78079 -2.76535 -0.0168966
-53.8482 -147.2995 -320.2070 1.88087 0.310093 1.92418
-53.6930 -147.3366 -320.2070 -3.5039 -1.92464 -0.113514
-45.6575 -139.1087 -320.5920 3.47807 0.793666 1.41585
-45.7033 -139.4218 -319.8620 4.70896 2.00417 3.48478
-54.6490 -147.0877 -320.2070 -4.41913 -2.40398 -1.03623
-47.0717 -138.4016 -320.5660 2.31658 0.841336 1.13218
-56.1059 -146.7287 -320.2070 -2.59898 -1.681 -0.540522
-55.6001 -146.8437 -320.2070 -3.69725 -2.04193 -0.891423
-47.7788 -138.4016 -320.2880 3.1134 1.45747 2.50187
-56.5137 -146.6373 -320.2070 -1.5063 -0.955058 -0.271904
-48.1323 -138.0480 -320.5290 2.33493 0.545704 1.73841
-57.1938 -146.4024 -320.2070 -2.84059 -1.82098 -1.00374
-48.4859 -137.6945 -320.6460 1.61206 0.889623 1.49053
-57.5100 -146.3481 -320.2070 -1.99198 -1.40651 -0.730867
-49.1930 -137.6945 -320.6030 2.56299 2.10342 2.60132
-49.8635 -137.4712 -320.7860 4.23359 1.71447 3.95593
-58.3854 -146.1798 -320.2250 -0.58539 -0.339676 -0.242034
-50.9608 -136.6338 -320.6140 2.21307 0.637891 2.60308
-51.6679 -136.6338 -320.4500 4.19974 0.683056 2.40544
-52.0214 -136.2803 -320.5660 2.74931 0.37226 1.50509
-51.3995 -137.0811 -320.0860 5.09141 1.28936 3.31715
-52.3750 -135.9267 -320.6900 1.69669 0.439517 1.06757
-53.0821 -135.9267 -320.2530 3.56366 0.883013 1.93303
-53.4356 -135.5732 -320.3680 1.01562 0.560203 0.888567
-53.5982 -135.7357 -320.2070 2.51523 1.4865 2.08727
-57.3247 -133.0983 -320.2440 2.29458 -0.253546 1.19887
-57.0751 -133.3479 -320.2070 2.70303 0.169775 1.57175
-57.6165 -134.3149 -318.3400 4.80336 0.617042 3.91459
-57.3735 -133.0495 -320.2070 2.65309 -0.745128 1.22715
-59.7996 -131.3305 -320.2340 2.53439 0.728128 1.73543
-59.7543 -131.3758 -320.2070 2.37646 0.88209 1.23452
-60.1531 -130.9770 -320.4510 1.49193 -0.0914629 1.31274
-60.2988 -130.8313 -320.2070 0.85244 -2.24407 2.08073
-61.2138 -130.6234 -320.2930 2.34668 -0.0401796 0.497503
-61.0851 -130.7521 -320.2070 2.57623 1.31955 1.67491
-60.9110 -131.1182 -319.6980 4.78189 1.02834 3.68658
-61.4012 -130.4360 -320.2070 2.97203 -0.198849 0.468873
-63.6887 -128.1485 -320.2150 2.80085 0.335458 1.48779
-63.6618 -128.1754 -320.2070 2.74444 0.321663 1.46599
-64.0422 -127.7950 -320.3480 2.76845 0.370916 1.41886
-65.1586 -127.7178 -319.1350 4.64501 0.294204 4.07398
-64.3958 -127.4414 -320.4760 2.47355 0.110925 1.3273
-64.7493 -127.0879 -320.4180 2.6311 -0.265733 1.47524
-65.1029 -126.7343 -320.2930 2.82562 -0.235523 1.66013
-65.4565 -126.3808 -320.2560 2.31887 -2.01182 -0.554653
-65.4565 -125.6737 -320.4710 0.985141 0.205698 1.16596
-66.1636 -125.6737 -320.3230 2.71788 0.706732 3.56743
-66.1636 -124.9666 -320.4340 0.223967 0.217587 2.33492
-66.5171 -124.6130 -320.4600 0.292088 0.445749 3.09251
-66.8707 -124.2595 -320.6380 0.747088 0.750787 2.90947
-69.9008 -124.0129 -318.3770 4.05719 0.0949111 4.59591
-69.6991 -121.4310 -320.5920 1.59661 -0.505288 2.87992
-70.0526 -121.0775 -320.6720 2.67908 0.302536 1.72007
-85.6090 -128.1485 -320.3030 -2.48451 0.390388 -1.89807
-85.6673 -128.2068 -320.2070 -1.95386 1.77291 1.98906
-85.4175 -127.9571 -320.7070 -1.36611 0.179403 -0.776664
-85.6902 -99.6033 -320.4210 3.61362 -1.14051 4.91551
-109.1990 -73.2981 -320.7090 -3.52331 2.42727 4.46845
-90.0811 -42.1813 -319.5870 1.57425 -2.51792 5.518
-116.0804 -43.1426 -323.2870 -4.22041 2.57213 3.62787
-73.1938 4.7703 -320.3480 2.59429 -4.19406 3.84445
-114.9165 -25.7088 -318.7590 -3.43309 1.7503 4.84058
-73.7292 38.6698 -317.6240 3.40633 -2.0115 4.84952
-8.4015 102.7903 -318.7040 1.56676 -2.06071 -5.34283
-13.9828 116.2799 -320.9070 3.8219 -1.98239 -4.51496
-13.8215 117.5554 -320.2070 2.18707 -1.11346 -1.92128
-13.8374 117.5714 -320.2210 2.22566 -1.09742 -1.99861
-14.1909 117.9249 -320.4780 2.21698 -1.04451 -2.05857
-14.8980 119.3391 -320.6980 0.861619 -0.355675 -0.955859
-20.7513 114.1940 -320.3110 -5.61539 -0.512502 -2.71433
-22.0172 115.0484 -320.2070 -2.75251 -0.251164 -1.32118
-21.6251 114.7525 -320.2070 -3.17812 -0.516096 -1.64777
-22.3608 115.4118 -320.2070 -2.93898 0.123219 -1.05916
-22.6903 115.7894 -320.2070 -3.01019 -0.0539674 -1.04978
-23.0814 116.1055 -320.2070 -2.60869 0.401228 -1.21798
-23.1832 116.3106 -320.2070 -2.55614 0.975878 -1.47721
-23.3013 116.5927 -320.2070 -3.08466 0.00764972 -0.692808
-23.7043 116.8968 -320.2070 -3.08308 -0.40536 -0.458408
-24.0904 117.2178 -320.4350 -4.10143 -0.449857 -0.677355
-23.9465 117.0738 -320.2070 -2.24177 -0.3497 -0.313098
-24.4440 117.5714 -320.3140 -2.07041 -0.0472013 -0.251179
-25.1511 118.9856 -320.3540 -2.03835 0.0895787 0.665132
-24.9581 118.7926 -320.2070 -2.96583 0.421045 0.717556
-25.3293 119.1638 -320.2070 -2.56993 -0.962554 1.7499
-129.7294 18.7677 -322.8890 -3.65439 4.42247 2.52441
-26.6657 120.2994 -320.2070 -2.70865 0.111093 1.93585
-21.2620 127.1173 -320.3000 2.62674 0.530737 1.68499
-21.0479 126.9032 -320.2070 2.60173 0.49236 1.72781
-22.4393 127.3429 -319.5630 5.3096 1.02946 3.19148
-21.6155 127.4708 -320.4680 2.57488 0.50617 1.63969
-21.9691 127.8244 -320.6050 2.61478 0.476513 1.69182
-22.2208 128.0761 -320.7070 2.30349 0.473053 1.50504
-22.3453 128.1553 -320.7070 1.93465 0.409192 1.26631
-23.0008 128.2069 -320.2070 3.37638 0.791593 2.36107
-23.3833 128.5315 -320.3240 2.51239 0.715113 1.98856
-23.7369 128.8851 -320.5040 2.62641 0.561209 1.63276
-28.6018 122.3515 -320.2540 -4.94351 0.231405 3.68106
-24.0904 129.2386 -320.6860 2.6421 0.583274 1.6008
-25.0086 129.0099 -319.5250 3.89865 1.38224 4.36013
-124.9557 26.9983 -316.3800 -2.8509 3.61123 4.22328
-124.3975 33.3753 -317.8590 -3.08953 3.51427 4.00859
-119.4534 55.0990 -322.7470 -1.68029 5.21502 3.00719
-55.5558 123.3617 -319.3340 -0.389984 -2.51562 5.32833
-63.0716 121.3655 -319.9250 -1.96627 -0.483627 5.73563
-53.6342 140.4627 -321.0650 3.89147 0.731809 4.79066
-65.2438 127.0208 -319.0130 -1.30774 1.07679 5.62671
-59.6382 139.4381 -320.7860 -1.50079 1.91547 5.67705
-30.6241 -148.6614 -319.4450 -1.22143 -2.77617 4.59175
-28.9802 -145.2936 -319.4690 1.7457 0.243473 5.49687
-49.5465 -148.6546 -319.9800 -2.68263 -1.61085 -0.293796
-49.5112 -148.6900 -319.7070 -2.64557 -1.58561 -0.323933
-43.7534 -139.9793 -320.2870 4.70729 1.22197 3.92928
-52.2823 -147.8548 -319.7070 -2.01422 -1.30132 -0.216878
-52.4938 -147.8287 -319.7070 -1.76962 -1.22444 -0.201908
-53.4356 -147.5940 -319.7790 -1.37786 -0.581588 -0.469809
-54.4963 -147.2404 -319.8590 -1.32759 -0.681638 -0.330606
-55.0630 -147.1000 -319.7070 -4.00396 -2.12147 -0.293781
-55.5570 -146.8869 -320.0850 -2.70396 -1.53714 -0.670793
-55.4396 -147.0042 -319.7070 -2.81011 -1.79027 -0.415485
-48.6659 -139.6182 -318.3010 3.85141 1.46722 4.56712
-57.3247 -146.5333 -320.0000 -0.719057 -0.507719 -0.641068
-52.9683 -136.6516 -319.1850 4.76307 1.21185 3.78791
-54.1427 -135.5732 -319.8390 3.47486 0.622806 1.82122
-54.4963 -135.2196 -319.9010 2.84749 0.653538 1.76307
-54.7136 -135.8711 -318.7950 4.80704 0.908176 3.83007
-54.8498 -134.8661 -320.1520 0.965133 0.293739 0.611726
-55.0444 -135.0606 -319.7070 2.63676 0.621948 1.53037
-55.9105 -134.5125 -319.7820 2.97953 0.80242 1.455
-55.7726 -134.6504 -319.7070 2.60231 0.500375 1.70298
-56.2641 -134.1589 -320.1930 2.0045 0.276098 1.02797
-56.6176 -133.8054 -320.0720 2.98497 -0.0624153 1.85146
-56.9712 -133.4518 -320.1900 2.61347 0.255531 1.5281
-57.6783 -132.7447 -319.8980 1.7707 -0.311755 0.98152
-57.8017 -132.8682 -319.7070 2.30598 0.592811 2.00531
-59.4460 -131.6841 -319.7940 2.68093 1.07662 1.6376
-59.3400 -131.7901 -319.7070 2.21893 0.876379 2.22175
-60.5067 -130.6234 -319.9570 0.791394 -0.279886 1.87504
-61.5674 -130.2699 -320.0960 3.31689 -0.162763 0.695781
-61.9209 -129.9163 -320.0040 2.68952 -0.0866179 1.67068
-62.2745 -129.5628 -319.9290 2.73386 0.00785637 1.93825
-62.6280 -129.2092 -319.9900 2.47435 0.142793 1.80056
-62.9816 -128.8556 -320.0030 2.63063 0.101732 1.9525
-63.3351 -128.5021 -320.1040 2.76267 0.311225 1.50309
-85.8551 -128.6096 -319.7070 0.988592 1.72218 1.30373
-85.7858 -128.6789 -320.2070 -0.745758 1.24557 -0.243579
-83.6155 -129.1150 -319.5000 -0.764724 1.09035 5.25979
-86.8735 -126.4927 -320.2410 -5.39715 0.189869 1.828
-93.0360 -94.7260 -317.7340 1.13514 -0.430269 6.00156
-106.6912 -87.6969 -321.1930 -4.00221 2.02169 4.14891
-91.3978 -59.4658 -320.2450 1.80534 -2.4331 5.48863
-108.8010 -64.1226 -319.7180 -2.60496 1.91863 5.27966
-82.1293 -18.1393 -320.0270 1.24371 -3.79846 4.71381
-74.9565 -3.6149 -320.8120 2.20981 -4.56114 3.56988
-115.6351 -37.9354 -321.5260 -3.61218 2.85814 4.03651
-120.3958 -18.2009 -321.3580 -4.60797 1.67438 3.83736
-121.2012 -13.6961 -319.8120 -5.05154 1.07575 3.51701
-123.2631 -10.6728 -319.6090 -5.96087 0.257356 0.13201
-10.2979 111.7125 -318.6820 4.20623 -2.2904 -3.9307
-127.5756 -2.4793 -321.0360 -5.29019 3.16811 0.644853
-12.5921 115.6190 -319.7070 2.07689 -1.03911 -2.14945
-12.7767 115.8036 -319.8240 2.79251 -1.1002 -2.53776
-12.9365 116.3509 -319.7070 2.11274 -0.738538 -1.81604
-13.1663 116.8282 -319.7070 2.30521 -1.00882 -2.01451
-13.1994 116.9334 -319.7070 1.70621 -0.882548 -1.51219
-13.4838 117.2178 -319.9430 2.20587 -1.12171 -1.96362
-21.2620 114.3894 -319.9050 -3.94667 -0.851185 -1.12906
-21.2988 114.3526 -319.7070 -2.95936 -0.361425 -1.0114
-21.6155 114.7429 -320.2010 -2.97309 -0.550043 -1.04887
-127.9458 17.6913 -318.9990 -3.17552 4.34835 3.06537
-24.4440 118.2785 -319.8740 -2.93476 0.356171 0.778084
-24.2021 118.0366 -319.7070 -3.06414 0.364883 0.84257
-24.7975 118.6320 -320.0660 -3.18535 0.393637 0.859521
-25.5046 119.3391 -320.1080 -3.15729 -0.413197 1.61758
-25.6683 120.2905 -318.8180 -4.40072 0.920957 3.87604
-25.8582 119.6927 -320.1750 -2.55756 -0.0401506 1.05998
-26.2117 120.0462 -320.0400 -3.38885 -0.146311 1.6516
-20.2013 126.0566 -319.8370 2.64781 0.53856 1.58575
-19.9370 125.7923 -319.7070 0.328669 0.0681701 0.196837
-20.2565 126.0015 -319.7070 2.65153 0.546883 1.59899
-20.5549 126.4102 -320.0040 2.61169 0.50903 1.61402
-20.6850 126.2801 -319.7070 3.69811 0.746944 2.26824
-20.9084 126.7637 -320.1530 2.59734 0.502966 1.66752
-76.0974 82.1658 -319.8690 3.97578 -1.55377 4.39974
-125.8828 37.6367 -320.3990 -2.61959 4.62768 3.33659
-119.5257 50.6874 -318.9280 -1.34283 4.83442 3.63434
-33.6796 -144.9131 -318.7520 1.89655 0.564796 5.45966
-44.1174 -142.4052 -317.6850 3.02486 0.88097 5.09446
-49.4299 -148.7713 -319.2070 -2.10884 -2.32188 1.19883
-54.6159 -147.3601 -319.2070 -3.54546 -0.972079 0.742076
-55.3915 -147.0523 -319.2070 -2.37545 -2.21139 -0.232388
-55.2034 -135.2196 -319.2150 4.21268 1.24382 2.69139
-55.5570 -134.8661 -319.5950 2.22981 0.831293 1.65994
-58.0318 -133.0983 -319.2470 3.9062 0.237453 2.7436
-58.3854 -132.7447 -319.2880 2.35935 0.436825 2.1729
-58.7389 -132.3912 -319.3980 1.41085 0.95717 2.70509
-59.0925 -132.0376 -319.5810 1.82653 0.773262 2.43176
-79.6508 -128.3096 -316.6870 -2.38928 0.273245 5.54132
-85.2554 -129.2092 -319.4610 0.612798 0.412809 3.01707
-85.0532 -129.4114 -319.2070 2.37707 1.91159 1.50793
-85.6090 -128.8556 -319.4420 1.41885 1.01855 2.02269
-87.0274 -124.6610 -318.6890 -2.80448 -0.307706 4.95191
-88.2801 -123.7203 -319.0500 -3.55204 0.790847 4.18465
-105.1398 -93.0206 -321.1530 -4.21787 2.24257 3.56673
-90.6290 -82.2292 -320.1330 2.58617 -1.76478 5.36187
-92.0378 -72.3010 -320.3940 2.0782 -1.85009 5.61253
-95.3375 -58.3841 -318.2890 0.972733 -1.59592 5.93125
-91.0768 -46.1377 -319.4670 1.70788 -2.01168 5.68802
-107.0378 -57.1047 -318.4190 -1.64267 1.47964 5.8042
-79.4500 -10.0556 -318.8110 1.24075 -3.993 4.5556
-67.2145 33.6494 -321.9600 3.16945 -2.82905 4.17625
-121.2023 -13.1281 -319.2070 -4.13022 0.85637 2.16728
-121.5135 -12.7322 -319.2070 -3.52594 0.493665 1.56471
-126.7631 -6.7889 -318.8510 -5.08268 1.48876 -2.93765
-11.3822 113.7019 -319.2070 1.70275 -1.08231 -2.40579
-11.7161 114.0358 -319.4200 1.85577 -0.980182 -2.40655
-12.0696 114.3894 -319.5910 2.61252 -1.30311 -3.01699
-12.0696 115.0965 -319.2930 1.30879 -0.638197 -1.28379
-12.4232 115.4500 -319.5910 1.52106 -1.41267 -2.40909
-20.6680 113.5691 -319.2070 -3.78361 0.223661 -1.15649
-21.0414 113.9029 -319.2070 -2.94908 -0.208121 -1.07783
-21.4204 114.2310 -319.2070 -1.45985 -0.104205 -0.503027
-23.7369 117.5714 -319.4390 -2.68581 0.50891 1.15587
-23.4837 117.3182 -319.2070 -2.79451 0.950504 1.57974
-24.0904 117.9249 -319.6420 -2.96818 0.332148 1.0024
-80.7364 64.0702 -318.8990 2.19561 -1.76683 5.56869
-20.9938 126.1420 -319.2070 1.59388 0.335608 0.990891
-21.3341 126.3381 -319.2070 2.94525 0.718072 2.42099
-124.3652 29.4290 -315.9340 -1.95772 3.80493 4.24833
-124.6751 31.2878 -317.3620 -1.98013 4.45125 3.94644
-84.9159 92.4975 -321.2980 2.98779 2.3522 4.793
-51.9209 129.1087 -318.9540 0.803071 -2.02453 5.53374
-59.5818 127.2265 -318.4870 -0.386379 -0.130867 6.14808
-101.7203 88.5722 -319.9580 0.414013 5.76625 1.75063
-49.5465 -148.6546 -318.8180 -0.648229 -2.57724 1.66948
-49.6668 -148.5344 -318.7070 -1.84161 -1.32806 2.92416
-50.5470 -148.2408 -318.7070 -2.35905 -1.22336 3.36928
-50.6072 -148.3011 -318.7680 -0.780545 -0.354249 1.09607
-50.7401 -148.1681 -318.7070 -2.20145 -0.887786 2.59499
-53.4651 -147.6235 -318.7070 -3.23939 -1.73401 1.04196
-54.0307 -147.4820 -319.2070 -2.08771 -1.20091 0.442964
-54.6046 -147.1479 -318.2670 -4.28845 -2.56274 3.00892
-54.2891 -147.4476 -319.2070 -2.47914 -1.70691 0.759136
-55.3993 -147.0446 -318.7070 -3.68898 -2.89628 -0.0852601
-55.6842 -147.0141 -318.7070 1.5753 1.64528 0.814289
-56.2369 -146.8597 -319.2070 -1.73449 -1.57076 -0.515797
-56.2938 -146.8572 -319.2070 -1.39757 -0.985106 0.00258429
-56.3581 -146.7928 -318.7070 -2.80356 -1.70828 0.510689
-78.1844 -133.4518 -318.7960 -1.07268 -0.0394798 1.03019
-78.5379 -133.0983 -318.7410 -2.11695 -0.331204 2.19548
-78.1305 -133.3980 -318.7070 -2.91063 0.315183 2.4716
-78.6454 -132.9908 -318.7070 -2.10972 -0.504644 2.26061
-79.8230 -132.9691 -318.7070 0.863823 0.33758 3.00161
-79.5986 -132.7447 -318.7990 -0.0360253 0.407354 3.04771
-79.4103 -132.5564 -318.7070 -0.401453 0.686303 4.09103
-81.1271 -130.9838 -319.1070 -0.991419 0.394387 5.27745
-82.5805 -131.1771 -318.7070 2.03982 1.08052 3.52788
-82.7806 -130.9770 -318.7920 1.61393 0.539539 2.80964
-83.1341 -130.6234 -318.7680 2.32377 -0.100239 2.1134
-83.4877 -130.2699 -318.7440 1.83712 0.193422 1.99653
-83.8412 -129.9163 -319.0180 2.26658 1.9969 3.9009
-84.0428 -130.1179 -318.7070 2.65422 0.603263 1.61695
-84.5008 -129.4134 -319.3240 3.49812 2.45388 4.29184
-84.9019 -129.5628 -318.7180 2.17099 1.12802 1.06199
-84.8913 -129.5734 -318.7070 2.58873 0.894081 1.39671
-87.2208 -123.6948 -319.1250 -0.0189422 0.829686 -1.06486
-86.6598 -123.5807 -318.7070 1.73684 -0.40842 -0.261661
-87.4760 -123.6078 -318.6480 -1.71044 0.850264 3.52467
-87.3005 -123.1211 -318.8450 -1.60021 1.13923 5.4769
-87.4347 -92.5005 -320.4370 2.96544 -1.66183 5.19168
-103.0784 -78.6429 -317.8450 -0.909031 0.639965 5.95427
-108.4299 -81.2804 -321.0170 -3.50615 2.36949 4.45674
-109.0184 -52.8142 -318.8510 -2.27481 1.4076 5.532
-108.4657 -45.4836 -317.9970 -1.97114 1.24525 5.71855
-113.8139 -40.4030 -320.4220 -3.58394 1.58253 4.80375
-109.9495 -35.4981 -317.4050 -1.51926 1.20079 5.76565
-115.1781 -31.4186 -320.3330 -3.51864 2.3066 4.54617
-75.7960 14.8857 -316.4380 1.89669 -2.98658 4.99835
-118.5312 -16.6082 -319.1090 -4.31274 0.919827 4.45827
-120.3182 -13.6583 -318.7070 -4.18802 -0.132199 1.97231
-120.6935 -13.3264 -318.7070 -2.78073 -0.038559 1.55777
-121.0333 -12.9591 -318.7070 -1.36011 0.118877 0.744324
-121.7657 -12.2773 -318.7070 -2.31282 0.189122 0.265903
-122.1361 -11.9406 -318.7070 -3.07612 -0.180712 -0.678736
-122.5314 -11.6287 -318.7070 -2.9638 -0.303967 -0.923351
-122.9015 -11.2917 -318.7070 -3.04856 -0.0655487 -0.66536
-123.2414 -10.9246 -318.7070 -3.67814 -0.593877 -0.791059
-12.5819 105.2284 -319.9150 -2.13385 -0.525295 -5.13506
-15.0881 103.9149 -316.3300 -5.28181 1.70681 -0.840557
-10.7324 113.0522 -318.7070 2.20528 -1.16498 -2.04673
-11.0089 113.3287 -318.9160 2.12683 -1.11181 -2.00792
-11.3625 113.6823 -319.1950 1.77142 -1.10426 -2.41157
-18.9355 111.6400 -319.7030 -5.40581 0.316106 -2.74395
-20.4354 113.0947 -318.7070 -3.76148 0.397461 -0.955623
-128.7979 2.8216 -319.1500 -3.75197 3.5065 -2.63311
-23.0298 116.8642 -319.1040 -2.38808 0.260833 0.876212
-22.7123 116.5468 -318.7070 -2.1831 1.30661 1.28748
-23.3833 117.2178 -319.1600 -3.0959 0.336116 1.18835
-21.9517 116.6234 -317.2130 -4.9446 1.60097 3.40198
-84.7039 60.7516 -316.3020 2.47043 -0.819465 5.69435
-80.9731 68.5380 -318.2140 1.15278 -2.53567 5.59321
-21.9656 126.4137 -318.7070 3.2657 0.540262 1.90476
-22.7224 127.1111 -318.9020 4.35713 1.13385 4.04921
-110.4435 69.6781 -319.7080 -1.8695 4.27522 -2.23897
-111.8434 71.8852 -318.2510 -0.929428 4.59071 -3.88943
-51.6399 133.6191 -318.5350 1.64881 -0.904998 5.22596
-94.7140 92.1032 -319.5950 2.78925 4.48403 2.78751
-56.9367 139.3683 -318.9890 0.461407 1.24959 4.98813
-36.7857 -148.8777 -318.6930 -1.54392 -2.41387 4.93168
-45.0334 -148.5496 -318.4000 -2.7005 -2.48468 4.62285
-48.6820 -147.2428 -317.5950 -2.19343 -2.26193 5.17086
-49.9897 -148.3907 -318.7070 -1.73634 -0.875288 2.6213
-51.0134 -148.0002 -318.7070 -2.24998 -0.961091 2.4087
-51.1477 -147.4585 -318.2470 -3.27236 -2.44653 4.72971
-51.6537 -147.9617 -318.7070 -0.848026 -1.29113 1.31094
-51.6679 -147.9475 -318.6770 -1.21455 -2.30039 1.90164
-52.0214 -147.5940 -318.2570 -1.42571 -1.29421 4.18045
-52.8769 -147.7423 -318.7070 -2.22803 -1.51976 1.61035
-52.5114 -147.8111 -318.7070 -1.21513 -1.18338 2.44671
-52.2362 -147.8088 -318.7070 -1.3403 -0.981387 1.09757
-53.3833 -147.6463 -318.7070 -2.24547 -1.49667 1.52408
-56.5080 -146.6429 -318.2070 -2.60057 -1.57172 1.77205
-57.7585 -146.2600 -318.2070 -2.1611 -0.831845 0.715559
-58.3135 -146.1078 -318.7070 -2.15453 -1.01262 0.547636
-58.6238 -145.8681 -318.1850 -4.60492 -2.25285 3.25772
-58.5021 -146.0631 -318.7070 -1.63675 -1.01338 0.597164
-58.7092 -145.8559 -318.2070 -2.80894 -1.29753 2.50415
-59.3612 -145.7414 -318.2070 -2.83589 -1.88822 2.67785
-59.4460 -145.8262 -318.6650 -0.363839 -0.244187 0.0953215
-59.5726 -145.6996 -318.2070 -2.25463 -1.58072 2.1171
-73.9417 -136.2803 -318.2210 -2.11594 -0.00429854 1.98088
-73.8908 -136.3312 -318.2070 -2.19377 0.394959 2.24117
-74.0167 -136.2053 -318.2070 -2.3497 -0.245757 2.08876
-77.5275 -133.5020 -318.2070 -2.82279 0.345443 2.38124
-78.0170 -131.7713 -317.3950 -3.78416 0.132613 4.942
-78.8915 -132.7447 -318.6270 -2.36635 -0.168362 2.84188
-80.6023 -133.7485 -318.2070 1.63979 1.13088 2.42918
-80.7420 -133.7227 -318.2070 1.63917 1.13098 2.42984
-81.0128 -133.4518 -318.3860 0.95702 0.777699 2.88433
-80.3057 -133.4518 -318.4910 1.1622 0.537975 2.89172
-79.9521 -133.0983 -318.6550 0.93187 0.315316 2.98692
-81.3664 -133.0983 -318.5960 0.188274 0.912167 2.97498
-81.7199 -132.7447 -318.6130 0.998939 -0.19728 3.03452
-82.0735 -132.3912 -318.4910 0.865999 -0.531791 2.05672
-82.0735 -131.6841 -318.5570 1.92648 -0.432844 4.21368
-82.7806 -131.6841 -318.3470 0.519615 0.209594 0.951443
-75.7775 -115.8153 -318.7640 3.98141 -0.876612 4.51095
-84.5483 -129.9163 -318.4190 2.52105 0.475997 1.2898
-84.1948 -130.2699 -318.2980 1.19847 0.151449 0.629784
-91.5082 -116.9980 -318.8750 -2.94037 1.10007 5.44204
-96.2124 -113.1307 -320.4740 -4.44665 1.14224 3.7848
-91.5140 -88.3997 -319.0820 2.17172 -1.1344 5.75302
-101.8078 -85.8702 -318.0730 -1.48647 0.563512 5.92816
-104.0330 -82.2432 -317.9870 -1.64997 1.14789 5.47778
-107.6839 -71.2704 -319.2850 -2.18372 1.84211 5.41765
-104.7311 -67.3223 -318.0390 -1.5277 0.084053 5.85097
-104.4624 -64.5541 -317.5720 0.00934395 1.23069 5.22015
-96.7176 -46.9332 -317.5760 0.587889 -0.724317 6.14033
-89.6508 -38.5376 -319.2650 1.58764 -2.53868 5.47884
-88.1240 -34.5929 -319.7210 1.54438 -2.99354 5.28811
-108.1378 -49.0321 -318.0860 -1.95466 1.32409 5.68431
-85.2500 -27.5531 -319.8910 1.76162 -3.52545 4.86852
-119.0935 -14.5549 -318.2070 -3.26073 0.22264 3.3997
-119.5501 -14.3043 -318.4400 -3.68056 0.662765 2.58595
-119.4404 -14.1946 -318.2070 -1.21413 0.177678 0.969702
-119.9037 -13.9508 -318.5390 -3.31644 0.180947 1.80254
-120.2572 -13.5972 -318.2130 -0.981131 -0.111737 0.17119
-123.7928 -10.7688 -318.2850 -3.50809 -1.01546 -1.19781
-123.8302 -10.8062 -318.2070 -3.38774 -0.436404 -1.93974
-9.8890 111.5017 -318.2070 2.44889 -1.10667 -1.73997
-9.9483 111.5609 -318.2530 2.58821 -0.833552 -1.52725
-10.3018 111.9145 -318.5410 3.04148 -2.39816 -0.526654
-10.3018 112.6216 -318.3440 1.43582 -0.772209 -1.23897
-10.6554 112.9752 -318.6300 2.24142 -1.17152 -1.73656
-76.6112 47.4118 -316.7730 3.24328 -1.59727 5.03984
-19.1704 111.5312 -318.2070 -3.84838 0.383065 -0.66376
-19.5317 111.8770 -318.2070 -3.09467 -0.0258068 -0.516809
-19.8853 112.2306 -318.2070 -3.01237 0.270331 -0.709395
-20.1355 112.5558 -318.2070 -2.94277 0.514167 -0.91094
-20.1893 112.6336 -318.2070 -3.09306 0.23049 -0.625077
-20.5294 113.0006 -318.2070 -1.53798 0.125293 -0.344823
-22.3227 116.1571 -318.2430 -2.94325 0.843259 1.63525
-22.2087 116.0432 -318.2070 -2.73317 0.330378 1.55085
-22.6762 116.5107 -318.6110 -1.74439 2.41936 1.48673
-18.7871 123.9353 -318.3850 1.3997 -0.0652549 2.07687
-18.5750 123.4403 -318.2070 1.74707 0.256417 1.46711
-19.1407 124.2889 -318.2660 1.36384 -0.321242 2.93853
-19.4942 124.6424 -318.3430 1.54751 -0.27547 2.30357
-19.7443 124.8925 -318.2070 1.76665 -1.03358 2.31512
-20.5549 124.9960 -318.2290 1.37718 0.956751 4.25939
-19.8686 124.1117 -317.9270 3.32725 0.630427 5.23151
-20.9084 125.3495 -318.3060 1.65935 0.565263 2.70182
-20.2520 125.4002 -318.2070 -0.109943 0.388909 1.38774
-21.2620 125.7031 -318.4730 1.7475 0.767395 2.46367
-22.4686 125.2169 -317.7820 1.60544 1.43453 5.57979
-21.6155 126.0566 -318.6150 1.73086 0.546753 2.48191
-21.9691 126.4102 -318.6980 2.95468 0.697931 3.26207
-122.7120 41.1306 -317.3040 -2.00652 4.17302 4.14481
-112.5003 67.6793 -319.2350 -1.70329 3.02491 -5.09127
-106.0214 80.6835 -318.1200 -1.38306 5.95639 1.10498
-55.3566 133.4098 -318.7720 -0.268422 0.675436 6.19735
-37.8358 -144.2907 -318.2140 2.1218 0.688864 5.30462
-56.6176 -146.5333 -318.1080 -2.07308 -1.46747 3.23668
-57.3247 -146.5333 -318.1510 -0.976252 -0.826659 1.83223
-57.6783 -146.1798 -317.9220 -2.99224 -1.38497 3.5483
-58.7494 -145.8367 -318.2070 -2.26196 -1.59067 -1.18755
-59.7996 -145.4727 -318.0340 -1.73566 -1.11454 2.54841
-59.5608 -144.1124 -316.9180 -3.67266 -1.83137 4.73403
-60.1531 -145.1191 -317.9390 -2.11832 -0.301822 2.43094
-60.5067 -144.7655 -317.9240 -3.12538 -1.00656 3.34516
-61.1721 -144.8073 -318.2070 -1.68511 -0.709747 1.8656
-60.7318 -144.9907 -318.2070 -1.19294 -0.491063 1.33842
-61.2138 -144.7655 -318.1850 -2.07039 -0.843312 2.22949
-61.5674 -144.4120 -318.0060 -2.10331 -1.5037 2.63334
-62.2745 -144.4120 -317.8490 -1.61411 -0.527777 1.9943
-62.6280 -144.0584 -318.0150 -1.99421 0.218784 1.96339
-62.9816 -143.7049 -317.9610 -2.34359 -0.829031 2.76544
-63.6887 -143.7049 -317.9550 -0.839358 -0.775333 2.01111
-64.0422 -143.3513 -317.7910 -1.58453 -0.541437 2.8118
-64.3958 -142.9978 -317.8060 -1.83103 -0.286771 2.34692
-64.7451 -142.6485 -317.7070 -2.0209 -0.486385 2.34833
-68.6384 -140.1694 -317.7250 -2.9745 -0.063463 2.15995
-68.5522 -140.2556 -317.7070 -2.79798 0.187063 1.44765
-69.3455 -140.1694 -317.9590 -1.39758 -0.28954 1.80894
-69.6991 -139.8158 -317.9440 -2.09678 -0.11624 2.27684
-70.0526 -139.4622 -317.8970 -1.98724 -0.350125 2.2784
-70.4062 -139.1087 -317.7760 -2.00322 -0.558559 2.36373
-70.6162 -138.8987 -317.7070 -2.00112 -0.508559 2.39227
-72.1740 -138.0480 -318.0670 -0.88533 -0.168506 1.15081
-72.5275 -137.6945 -317.9790 -1.73067 -0.523435 2.4778
-71.8588 -137.7329 -317.7070 -2.96779 -0.355161 3.54529
-72.8811 -137.3409 -317.8240 -2.08262 -0.101262 2.72901
-73.2346 -136.9874 -318.0640 -2.0393 0.605798 1.99885
-73.5882 -136.6338 -318.1400 -2.19653 0.345927 2.22465
-74.2953 -135.9267 -318.1640 -2.33822 -0.189808 2.12339
-72.4562 -135.7818 -316.7240 -3.80008 -0.0567095 4.94769
-74.6488 -135.5732 -318.1240 -2.41902 -0.12927 2.1342
-75.0024 -135.2196 -318.1430 -2.54232 0.0681257 1.83506
-75.3559 -134.8661 -318.1590 -2.44462 0.00170364 1.83155
-75.7095 -134.5125 -318.1210 -2.67659 -0.584943 2.39109
-76.2813 -134.3772 -318.2070 -1.96926 -0.823894 1.99212
-76.7525 -134.1766 -318.2070 -1.73702 -0.761807 1.73224
-76.7702 -134.1589 -318.1950 -2.1934 -0.83219 2.24298
-77.1237 -133.8054 -318.0540 -2.38926 -0.205261 2.66794
